ply
format ascii 1.0
comment Created by Open3D
element vertex 238
property double x
property double y
property double z
end_header
0.350562 -0.990246 1.95152
0.528831 -0.188239 0.229401
0.608266 -0.241118 0.384991
-0.712162 0.0146763 1.14732
-0.657823 0.103573 1.15503
0.336141 -1.04365 1.86384
0.652253 -0.791539 1.45084
-0.217061 0.171815 0.918799
0.900734 -0.693982 1.75572
0.889586 -0.703087 1.76334
0.394836 -1.09582 1.76132
-0.105337 0.321586 0.892884
0.369714 -0.933838 1.76918
-1.22702 -0.49095 1.46181
-0.506142 -0.264091 0.629819
-0.550576 -0.279481 0.594504
-0.15337 0.262543 0.918741
-1.23365 -0.466537 1.40628
0.468123 -0.915912 1.63282
0.567083 -0.881475 1.52066
0.78436 -0.200377 0.854309
0.168497 0.0172272 -0.12216
-1.15945 -0.330408 0.851653
0.23451 0.0322082 -0.137002
0.770242 -0.246694 0.813694
0.0828448 -0.00255908 -0.0925744
0.775855 -0.198135 0.836104
-0.929458 -0.823317 1.93106
-0.892973 -0.829099 1.98731
-0.971605 -0.835143 1.93864
0.312856 -0.92446 1.88371
-1.00415 -0.807773 1.89892
-0.479658 -0.161371 0.181566
-0.491627 -0.219666 0.298454
0.918896 -0.67947 1.79198
-0.480141 -0.206438 0.24735
0.765117 -0.885027 1.92173
0.930413 -0.684369 1.83481
-0.908008 -0.225843 0.524163
-0.818053 -0.231877 0.486646
0.954793 -0.715655 1.8744
0.72991 -0.983362 2.02706
-0.0290844 -0.0339953 -0.0583182
0.731867 -0.972155 2.04719
0.732004 -0.95252 2.04425
-0.123196 -0.0643838 -0.0334197
-1.25039 -0.331825 1.18474
0.297471 0.442216 0.876991
0.904035 -0.23555 1.29586
0.88945 -0.193444 1.2336
-0.772944 0.0411721 0.869892
0.928458 -0.31433 1.3652
0.551256 -0.806377 1.91783
0.752745 -0.287563 0.789811
0.930347 -0.774638 1.90124
0.88309 -0.830969 1.91065
-1.23314 -0.334843 1.20614
0.753661 -0.355129 1.35184
-0.750491 -0.0677801 1.10365
0.745967 -0.492736 1.33831
0.746658 -0.414451 1.3132
-0.792069 -0.196621 0.994454
0.610664 -0.785986 1.94403
-0.783841 -0.259222 0.952193
-1.167 -0.324623 0.821674
-1.15936 -0.330887 0.832351
-0.642583 -0.108878 0.651329
1.05608 -0.881371 2.03571
-0.659076 -0.16928 0.584951
-1.17813 -0.319711 0.864506
0.989587 -0.919028 2.04725
0.169387 -0.142173 0.0929768
0.00566245 0.413531 0.804119
-0.0156945 0.402397 0.797554
0.331329 -0.0149045 -0.0380916
0.336296 -0.00974327 -0.045825
-0.741628 -0.198693 0.565153
-1.03557 -0.745689 1.55564
-0.80663 -0.231933 0.636921
-0.273984 0.166777 0.582952
0.337672 0.00168434 -0.059906
0.661181 -0.281791 0.506613
-1.04881 -0.261926 0.618713
-1.08476 -0.263057 0.67203
0.216257 -0.105911 0.0102192
-0.96496 -0.798412 1.83766
-1.01078 -0.77567 1.69734
-0.644584 -0.236098 0.56022
0.414401 0.424985 0.917538
0.81521 -0.215277 0.886243
-0.603631 -0.271161 0.569005
0.878702 -0.924986 2.06805
0.93024 -0.920409 2.06057
1.07653 -0.680746 1.77921
-0.657413 -0.202862 0.562114
0.824452 -0.949656 2.0507
1.0925 -0.645385 1.72884
0.322995 0.0335008 -0.0998205
0.333375 0.0195277 -0.0772497
1.10232 -0.870836 2.01651
0.847647 -0.213395 0.914645
-0.488462 0.191822 0.998285
-1.21599 -0.485866 1.51162
0.715436 -0.295953 0.627545
0.745596 -0.316641 0.698765
-1.19244 -0.491073 1.54878
0.318933 -0.0201088 -0.0425866
-0.940382 -0.850111 1.97863
-0.906947 -0.836509 2.01678
-0.879601 -0.81969 2.0236
1.11731 -0.830297 1.9856
-0.488372 0.235642 1.05477
1.12893 -0.796656 1.94483
-0.527172 0.233265 1.09706
-0.591857 0.175325 1.12971
1.09101 -0.635333 1.66036
-0.727453 -0.225451 0.453212
1.06736 -0.565841 1.54008
-0.103203 0.0535614 0.395854
0.524101 0.400225 0.967504
0.0387954 0.435231 0.828625
1.08107 -0.602732 1.5938
0.184718 0.455508 0.84693
-0.588765 -0.229252 0.395173
-0.65242 -0.221227 0.425702
-0.184554 -0.187976 0.496348
-0.0719821 -0.20443 0.438428
-1.01379 -0.259214 0.579987
-0.283426 -0.0304156 0.84072
-0.185221 0.100197 0.487993
0.854633 -0.229963 0.980202
-0.365425 -0.209436 0.719242
0.729136 -0.58366 1.3779
-0.307332 -0.132689 0.783009
-0.450767 -0.244131 0.662413
0.373957 -0.959304 2.03794
0.895046 -0.220561 1.01323
-1.27194 -0.342935 0.986381
-1.30105 -0.344859 1.0469
-0.541846 0.0851739 0.84862
0.0910145 0.452272 0.829923
-0.863797 -0.282368 0.720215
-0.466779 -0.134473 0.135536
0.390535 -0.960003 2.08453
-0.43182 -0.12644 0.0926811
-0.618078 -0.0381904 0.716388
-0.523131 0.188802 0.769604
-0.60556 0.170545 0.79929
0.448521 -0.140655 0.112167
0.29072 -0.0963622 -0.0189417
-0.924255 -0.340595 0.813944
0.365696 -0.107667 0.0191492
0.704504 -0.688525 1.41343
0.904645 -0.218823 1.07111
0.782272 -0.96542 2.02632
-1.28785 -0.345312 1.16626
0.59031 -1.04788 1.6972
-0.347848 -0.199944 0.503864
0.389113 -0.862237 2.10246
0.530019 -0.879788 1.82474
0.312338 -0.889456 1.96468
-1.30469 -0.34607 1.08412
-1.1585 -0.313388 0.787671
-0.515414 0.140024 0.919543
-1.10918 -0.288146 0.71415
-0.531437 -0.197557 0.506785
-1.13832 -0.298145 0.74942
-0.663093 -0.198422 0.528442
0.339252 -0.84873 2.03092
0.779165 -0.746062 1.8701
0.68592 -0.771284 1.91622
-0.265304 0.0753903 0.892824
0.559991 -0.969771 1.73841
-1.23788 -0.424931 1.36178
0.799051 0.113236 1.81887
-0.997846 -0.242833 0.552857
-0.963159 -0.23016 0.543835
0.848035 -0.18204 1.72335
0.820553 -0.206517 1.63349
0.832782 -0.147969 1.80426
-1.1994 -0.326416 0.874323
-1.23302 -0.322898 0.925802
0.741989 -0.973364 2.00952
0.415454 -0.91058 2.14519
0.420571 -0.949158 2.14689
-0.372656 -0.116914 0.0467207
-1.30285 -0.356959 1.12169
0.717963 -0.918753 2.02301
-0.798556 -0.171193 0.864448
0.325535 -0.0226548 -0.0381725
-1.16658 -0.516704 1.57871
0.844855 -0.714099 1.8037
-0.295066 -0.105167 0.0127407
-1.23139 -0.387267 1.29171
-1.03511 -0.593941 1.25034
0.770396 -0.284681 1.43583
-1.04752 -0.684902 1.41202
0.716271 -0.895916 1.98753
-0.209034 -0.087547 -0.0146084
0.799665 -0.221141 1.52695
-0.514968 -0.22632 0.345584
-0.548308 -0.225174 0.371837
-1.09507 -0.669459 1.75019
-1.05846 -0.73838 1.83166
-0.727659 0.110403 0.855359
-0.79704 -0.0679945 0.872137
-0.677874 0.148287 0.828759
0.328766 -0.0150606 -0.0334937
-0.999203 -0.449065 0.989257
-1.03358 -0.776635 1.85838
-1.0092 -0.519183 1.11225
-0.982521 -0.39997 0.898531
-0.584465 0.0302894 0.784975
-0.0698803 0.36684 0.867739
0.81038 -0.116837 1.88525
0.758975 -0.311846 0.747714
0.0722752 -0.203646 0.273991
-0.043776 0.387389 0.825326
0.892428 -0.210939 1.13015
0.00897881 -0.218158 0.356224
0.119925 -0.178654 0.179615
0.309244 0.0389309 -0.121837
-1.22602 -0.357765 1.24471
0.570568 -1.10203 1.70162
0.498079 -1.12245 1.70283
-0.449692 0.203291 0.72857
-1.12435 -0.623231 1.6796
-0.374713 0.203662 0.663754
-1.14568 -0.569557 1.62462
-1.21675 -0.320634 0.895791
0.280098 0.0402805 -0.134214
1.09217 -0.729324 1.83126
1.02457 -0.498427 1.49685
1.12666 -0.781872 1.90019
0.731076 -0.890232 1.95127
0.966698 -0.418613 1.43295
0.813719 -0.878334 1.91687
0.887588 -0.185402 1.17927
