ply
format ascii 1.0
comment VCGLIB generated
element vertex 336
property float x
property float y
property float z
property float nx
property float ny
property float nz
property uchar red
property uchar green
property uchar blue
property uchar alpha
element face 0
property list uchar int vertex_indices
end_header
-0.0486333 0.241269 1.50432 0 0 0 151 50 32 255 
-0.287486 0.13809 1.67992 0 0 0 201 114 94 255 
-0.045244 0.230685 1.5086 0 0 0 143 83 33 255 
-0.159631 0.243711 1.50988 0 0 0 152 38 27 255 
-0.030773 0.237983 1.50262 0 0 0 150 47 30 255 
-0.233476 0.219025 1.56372 0 0 0 187 86 58 255 
-0.136754 0.0365969 1.88314 0 0 0 180 66 42 255 
0.00836948 0.0321979 1.87245 0 0 0 167 57 30 255 
-0.286812 0.13222 1.71035 0 0 0 140 38 26 255 
0.107433 0.181918 1.5738 0 0 0 192 96 71 255 
-0.101689 0.245977 1.483 0 0 0 155 43 31 255 
-0.265498 0.199201 1.56424 0 0 0 172 64 36 255 
-0.140113 0.244118 1.49619 0 0 0 154 40 29 255 
0.0873458 0.199999 1.54838 0 0 0 173 79 53 255 
-0.163278 0.111459 1.71469 0 0 0 174 37 19 255 
-0.277587 0.188064 1.6181 0 0 0 165 54 27 255 
-0.124051 0.236531 1.53077 0 0 0 167 42 24 255 
-0.23533 0.218966 1.5527 0 0 0 177 93 57 255 
-0.0448668 0.249443 1.49371 0 0 0 157 89 66 255 
-0.199163 0.0448518 1.85879 0 0 0 168 71 54 255 
0.139408 0.152601 1.64421 0 0 0 186 96 72 255 
0.142127 0.11233 1.70606 0 0 0 186 95 74 255 
0.0603226 0.0302133 1.84402 0 0 0 210 111 88 255 
0.168543 0.0985838 1.74315 0 0 0 190 68 31 255 
-0.023959 0.218123 1.53594 0 0 0 125 49 25 255 
0.0904517 0.191416 1.57176 0 0 0 168 69 46 255 
-0.25666 0.0742401 1.81451 0 0 0 179 80 61 255 
-0.0407669 0.233988 1.52409 0 0 0 142 81 26 255 
-0.233008 0.0612821 1.83818 0 0 0 203 105 78 255 
0.139533 0.0547233 1.83346 0 0 0 169 43 20 255 
-0.0355908 0.212629 1.52234 0 0 0 172 97 55 255 
-0.0810038 0.231361 1.49816 0 0 0 161 58 41 255 
-0.280641 0.186689 1.61809 0 0 0 134 37 28 255 
0.103868 0.185085 1.58607 0 0 0 165 70 50 255 
0.160027 0.0990059 1.74303 0 0 0 141 42 21 255 
-0.0124963 0.195141 1.55528 0 0 0 138 81 28 255 
0.0189499 0.192898 1.56404 0 0 0 134 21 13 255 
0.115618 0.183642 1.59199 0 0 0 165 71 46 255 
0.104305 0.191353 1.57779 0 0 0 165 69 45 255 
0.132186 0.181989 1.6086 0 0 0 176 76 52 255 
-0.177507 0.04025 1.86403 0 0 0 172 80 59 255 
-0.287096 0.116631 1.73637 0 0 0 185 73 53 255 
-0.291907 0.102875 1.7628 0 0 0 170 65 35 255 
-0.278092 0.0980573 1.78825 0 0 0 173 79 45 255 
-0.203501 0.0550921 1.85276 0 0 0 181 84 65 255 
-0.0511199 0.237668 1.52169 0 0 0 139 80 36 255 
0.0988965 0.183851 1.57767 0 0 0 173 70 51 255 
-0.0875181 0.0230542 1.88032 0 0 0 174 85 67 255 
0.17444 0.145892 1.65754 0 0 0 137 49 27 255 
0.130084 0.137855 1.64596 0 0 0 177 85 60 255 
-0.273406 0.189897 1.62677 0 0 0 142 34 24 255 
0.157497 0.109637 1.74385 0 0 0 179 54 24 255 
0.157396 0.100072 1.72944 0 0 0 195 82 50 255 
-0.25881 0.1279 1.7247 0 0 0 134 22 18 255 
0.0275517 0.226741 1.53089 0 0 0 151 36 17 255 
0.146509 0.114019 1.66501 0 0 0 198 110 88 255 
-0.282194 0.105241 1.74462 0 0 0 177 90 63 255 
-0.160516 0.24369 1.51562 0 0 0 153 42 25 255 
0.123677 0.174051 1.5869 0 0 0 154 90 78 255 
-0.0361861 0.223646 1.50933 0 0 0 136 81 27 255 
-0.124381 0.249163 1.5015 0 0 0 152 38 27 255 
-0.257667 0.191939 1.61023 0 0 0 192 104 84 255 
-0.129238 0.246713 1.49509 0 0 0 158 49 29 255 
-0.160703 0.24375 1.51486 0 0 0 163 52 32 255 
-0.231073 0.0658921 1.83656 0 0 0 182 92 68 255 
-0.283559 0.165018 1.63795 0 0 0 175 71 44 255 
-0.0491597 0.235714 1.49865 0 0 0 127 40 23 255 
-0.240329 0.215661 1.5648 0 0 0 174 53 36 255 
-0.0918007 0.241085 1.47342 0 0 0 136 41 21 255 
-0.199683 0.230386 1.5267 0 0 0 130 26 15 255 
-0.0913963 0.251842 1.49614 0 0 0 151 41 26 255 
-0.0316295 0.237511 1.49782 0 0 0 145 39 25 255 
-0.183116 0.0455866 1.86662 0 0 0 178 78 54 255 
-0.114531 0.24587 1.49031 0 0 0 154 63 34 255 
-0.0767614 0.249567 1.48308 0 0 0 148 36 25 255 
-0.287425 0.0878734 1.76487 0 0 0 163 47 24 255 
0.0362892 0.0348302 1.8337 0 0 0 124 27 20 255 
-0.0359201 0.227745 1.51522 0 0 0 116 32 22 255 
-0.0996298 0.248499 1.49659 0 0 0 109 31 27 255 
-0.0335044 0.2402 1.51832 0 0 0 104 25 21 255 
-0.0416854 0.250009 1.49198 0 0 0 105 22 18 255 
-0.0474904 0.255972 1.47192 0 0 0 94 20 17 255 
-0.0269042 0.230461 1.50066 0 0 0 123 37 24 255 
-0.0304346 0.217129 1.49976 0 0 0 98 53 20 255 
0.0737605 0.196753 1.54908 0 0 0 183 84 61 255 
-0.23084 0.0549084 1.82321 0 0 0 184 94 68 255 
0.0136765 0.234957 1.50434 0 0 0 144 69 40 255 
-0.209365 0.0658289 1.84036 0 0 0 116 23 18 255 
0.165479 0.0453946 1.79434 0 0 0 178 58 31 255 
-0.176175 0.0387145 1.86914 0 0 0 207 107 84 255 
-0.213824 0.21722 1.56177 0 0 0 186 51 21 255 
-0.283695 0.169211 1.65728 0 0 0 198 111 92 255 
-0.233472 0.199451 1.56484 0 0 0 193 102 84 255 
0.144586 0.100997 1.69005 0 0 0 206 115 97 255 
0.1772 0.0857041 1.75838 0 0 0 181 57 31 255 
0.17943 0.154273 1.65758 0 0 0 162 80 40 255 
-0.0389992 0.226769 1.53292 0 0 0 153 85 40 255 
-0.0335842 0.218895 1.52494 0 0 0 150 77 42 255 
-0.0570147 0.242169 1.49915 0 0 0 137 39 26 255 
-0.0507051 0.227155 1.49996 0 0 0 116 48 29 255 
-0.030541 0.202983 1.51413 0 0 0 149 81 42 255 
-0.319593 0.150112 1.68075 0 0 0 151 41 26 255 
-0.239438 0.184801 1.57389 0 0 0 174 75 44 255 
-0.16015 0.217789 1.51171 0 0 0 173 78 50 255 
-0.19069 0.212331 1.53294 0 0 0 181 75 49 255 
-0.0634302 0.235592 1.50003 0 0 0 135 41 31 255 
-0.206166 0.2127 1.54411 0 0 0 153 50 31 255 
-0.287275 0.146172 1.68147 0 0 0 140 43 24 255 
-0.157657 0.236023 1.50961 0 0 0 186 107 100 255 
-0.165623 0.037777 1.87436 0 0 0 208 114 88 255 
-0.169777 0.224739 1.52039 0 0 0 162 88 87 255 
-0.150734 0.244785 1.51627 0 0 0 194 69 49 255 
-0.060129 0.239073 1.49842 0 0 0 189 76 46 255 
-0.186887 0.0420724 1.86304 0 0 0 200 104 80 255 
-0.0822122 0.252225 1.49615 0 0 0 184 64 48 255 
-0.271966 0.188355 1.62748 0 0 0 205 83 59 255 
-0.0271363 0.0770975 1.80276 0 0 0 179 40 35 255 
-0.227968 0.222277 1.55481 0 0 0 185 52 37 255 
-0.25836 0.203677 1.5641 0 0 0 182 55 38 255 
-0.118611 0.239311 1.51781 0 0 0 181 64 46 255 
-0.291208 0.176177 1.60815 0 0 0 175 66 37 255 
-0.0586893 0.240326 1.50808 0 0 0 160 62 35 255 
-0.185387 0.234485 1.51401 0 0 0 151 35 22 255 
-0.183157 0.0402132 1.86061 0 0 0 197 92 62 255 
-0.214956 0.0488536 1.83536 0 0 0 204 110 82 255 
-0.0263768 0.199529 1.58221 0 0 0 191 113 109 255 
-0.00832701 0.252929 1.47809 0 0 0 103 25 21 255 
-0.0172385 0.241362 1.51222 0 0 0 117 26 23 255 
0.0567518 0.212263 1.54056 0 0 0 111 31 22 255 
-0.0287588 0.226278 1.49694 0 0 0 100 44 17 255 
-0.0186346 0.248566 1.48522 0 0 0 96 15 11 255 
0.0309533 0.228939 1.50717 0 0 0 110 23 16 255 
0.119757 0.179167 1.58158 0 0 0 147 81 69 255 
-0.0447928 0.0324672 1.88762 0 0 0 217 116 88 255 
-0.0488317 0.20913 1.51784 0 0 0 107 64 29 255 
-0.0611692 0.265387 1.44563 0 0 0 118 39 34 255 
-0.0399867 0.231678 1.50606 0 0 0 115 33 22 255 
0.0788955 0.222016 1.541 0 0 0 92 17 12 255 
-0.05342 0.23038 1.51405 0 0 0 121 37 27 255 
-0.162202 0.228938 1.51102 0 0 0 143 63 54 255 
-0.259915 0.078101 1.78874 0 0 0 197 117 92 255 
-0.237734 0.0686153 1.82996 0 0 0 194 108 81 255 
-0.151139 0.240578 1.49521 0 0 0 154 42 28 255 
-0.284581 0.180092 1.5995 0 0 0 177 69 41 255 
-0.119871 0.249027 1.50042 0 0 0 150 38 26 255 
-0.278746 0.170307 1.62308 0 0 0 177 69 41 255 
-0.0609037 0.228763 1.48479 0 0 0 142 50 29 255 
-0.278514 0.187795 1.61713 0 0 0 142 35 25 255 
-0.031811 0.0892576 1.75713 0 0 0 88 51 43 255 
-0.225064 0.122923 1.7013 0 0 0 145 24 16 255 
-0.0364724 0.239897 1.51211 0 0 0 166 57 36 255 
-0.14319 0.0267642 1.87276 0 0 0 183 93 69 255 
-0.248099 0.211871 1.56189 0 0 0 131 30 22 255 
-0.255279 0.0779867 1.80186 0 0 0 179 79 56 255 
-0.284013 0.11039 1.74524 0 0 0 172 67 48 255 
-0.123436 0.249018 1.50579 0 0 0 199 74 56 255 
-0.139636 0.246218 1.50582 0 0 0 144 42 28 255 
-0.278391 0.187348 1.62587 0 0 0 163 55 27 255 
-0.27526 0.18944 1.62329 0 0 0 162 54 28 255 
-0.295726 0.169563 1.6243 0 0 0 180 72 43 255 
-0.0647193 0.239231 1.50086 0 0 0 188 79 50 255 
0.0783646 0.109225 1.70083 0 0 0 174 43 33 255 
-0.26961 0.192254 1.60006 0 0 0 98 53 47 255 
-0.0941171 0.249182 1.49708 0 0 0 127 46 42 255 
-0.130259 0.24234 1.51691 0 0 0 124 45 40 255 
-0.0312549 0.217437 1.48976 0 0 0 94 55 26 255 
-0.184498 0.216244 1.52893 0 0 0 143 54 48 255 
-0.0357765 0.219207 1.50405 0 0 0 88 51 25 255 
-0.184276 0.23226 1.53347 0 0 0 108 23 20 255 
-0.0487712 0.228883 1.51596 0 0 0 108 31 25 255 
0.0622619 0.223661 1.54291 0 0 0 84 14 14 255 
0.0208124 0.233891 1.52748 0 0 0 89 15 14 255 
-0.0433604 0.229385 1.5048 0 0 0 96 44 23 255 
0.0257305 0.228148 1.53043 0 0 0 82 14 11 255 
0.0626429 0.186837 1.57688 0 0 0 103 9 10 255 
0.00702239 0.263424 1.43561 0 0 0 85 14 12 255 
-0.26844 0.105279 1.77933 0 0 0 188 90 61 255 
-0.0797216 0.237155 1.50108 0 0 0 170 68 45 255 
-0.240926 0.210547 1.52832 0 0 0 136 28 18 255 
-0.294333 0.167046 1.66302 0 0 0 163 52 24 255 
-0.317822 0.139874 1.67493 0 0 0 169 69 33 255 
0.143949 0.131092 1.67497 0 0 0 188 96 71 255 
0.142465 0.115724 1.70248 0 0 0 188 102 77 255 
0.145022 0.127242 1.68639 0 0 0 178 72 46 255 
-0.00351392 0.230235 1.52799 0 0 0 145 29 14 255 
0.055237 0.220643 1.53395 0 0 0 175 88 61 255 
-0.238274 0.213703 1.55526 0 0 0 161 49 27 255 
0.133512 0.133776 1.65939 0 0 0 164 68 44 255 
0.135247 0.131773 1.66375 0 0 0 185 88 69 255 
-0.296136 0.136499 1.68219 0 0 0 174 79 51 255 
-0.205137 0.225899 1.50615 0 0 0 144 33 22 255 
-0.0830551 0.239172 1.5049 0 0 0 193 89 64 255 
-0.0555527 0.235465 1.51153 0 0 0 168 87 42 255 
-0.124165 0.249984 1.50019 0 0 0 173 52 35 255 
-0.110796 0.24062 1.5158 0 0 0 155 48 30 255 
0.128377 0.112013 1.69363 0 0 0 136 35 23 255 
-0.199814 0.0471926 1.85176 0 0 0 181 85 61 255 
-0.306351 0.147959 1.66779 0 0 0 157 42 24 255 
-0.294973 0.122573 1.71176 0 0 0 175 70 41 255 
-0.286027 0.177388 1.64971 0 0 0 156 47 18 255 
-0.284543 0.119036 1.70712 0 0 0 180 94 67 255 
-0.0367895 0.241583 1.51589 0 0 0 161 55 31 255 
-0.0166719 0.20572 1.51988 0 0 0 139 61 39 255 
-0.163306 0.0388632 1.87236 0 0 0 174 78 56 255 
-0.048378 0.236111 1.49889 0 0 0 145 57 35 255 
-0.280884 0.127313 1.72572 0 0 0 165 59 43 255 
-0.0272192 0.239638 1.50252 0 0 0 141 55 32 255 
-0.275006 0.189144 1.62304 0 0 0 142 34 24 255 
-0.18981 0.186728 1.56904 0 0 0 149 66 26 255 
-0.0847416 0.240524 1.50469 0 0 0 160 64 42 255 
-0.0738244 0.23333 1.49817 0 0 0 152 51 33 255 
-0.191697 0.228646 1.50398 0 0 0 156 69 41 255 
-0.236247 0.21628 1.56827 0 0 0 194 68 45 255 
-0.24124 0.214932 1.55985 0 0 0 181 56 38 255 
-0.0875099 0.25204 1.5009 0 0 0 194 76 50 255 
-0.153549 0.244391 1.51324 0 0 0 187 60 43 255 
-0.0765792 0.24815 1.47707 0 0 0 179 76 45 255 
-0.107505 0.250469 1.5012 0 0 0 185 60 38 255 
-0.228156 0.208037 1.56014 0 0 0 199 80 60 255 
-0.288123 0.1405 1.70148 0 0 0 214 118 94 255 
-0.0696244 0.25183 1.49784 0 0 0 177 67 42 255 
-0.163941 0.034863 1.86923 0 0 0 181 93 71 255 
-0.0604907 0.237474 1.50233 0 0 0 139 48 27 255 
-0.255775 0.0771487 1.80822 0 0 0 193 94 71 255 
-0.241519 0.214959 1.56518 0 0 0 147 33 23 255 
-0.270444 0.0913706 1.77465 0 0 0 190 95 73 255 
-0.266623 0.199918 1.56417 0 0 0 163 48 29 255 
-0.235217 0.0810505 1.78038 0 0 0 110 19 18 255 
-0.108745 0.254413 1.4989 0 0 0 138 32 18 255 
-0.272453 0.100784 1.76965 0 0 0 187 91 67 255 
-0.16955 0.250505 1.50805 0 0 0 150 45 26 255 
-0.226589 0.0636274 1.84007 0 0 0 194 100 74 255 
-0.300344 0.149793 1.68448 0 0 0 180 108 68 255 
-0.285025 0.153621 1.64839 0 0 0 145 67 47 255 
-0.0431215 0.240503 1.51276 0 0 0 164 91 38 255 
-0.27096 0.161657 1.62391 0 0 0 159 82 64 255 
0.0451974 0.206604 1.53424 0 0 0 168 69 48 255 
0.0699835 0.215318 1.55289 0 0 0 174 74 50 255 
-0.0862931 0.240551 1.52219 0 0 0 152 32 16 255 
0.0218033 0.22411 1.5174 0 0 0 158 59 38 255 
0.0727366 0.20714 1.54711 0 0 0 156 61 43 255 
-0.079066 0.236379 1.50116 0 0 0 149 46 31 255 
-0.294968 0.176942 1.61608 0 0 0 116 26 18 255 
-0.0552208 0.23654 1.51691 0 0 0 105 48 18 255 
-0.171504 0.246158 1.49708 0 0 0 139 33 17 255 
-0.277014 0.188805 1.61656 0 0 0 138 31 25 255 
-0.045754 0.24215 1.50857 0 0 0 137 44 27 255 
-0.0136335 0.241686 1.50724 0 0 0 155 61 36 255 
-0.0816334 0.22142 1.50592 0 0 0 185 102 88 255 
-0.226701 0.149793 1.67982 0 0 0 165 39 27 255 
-0.171254 0.196312 1.57792 0 0 0 172 63 40 255 
-0.248543 0.069976 1.82168 0 0 0 171 68 49 255 
0.139317 0.144485 1.64527 0 0 0 188 89 70 255 
-0.0795817 0.252476 1.49682 0 0 0 146 38 25 255 
-0.192536 0.0490134 1.85525 0 0 0 171 72 53 255 
-0.292133 0.11318 1.73211 0 0 0 169 62 44 255 
-0.0640696 0.0255387 1.88527 0 0 0 174 93 66 255 
-0.268012 0.109617 1.76528 0 0 0 176 69 49 255 
-0.279427 0.142463 1.7023 0 0 0 155 33 20 255 
0.176499 0.0458848 1.80192 0 0 0 146 31 12 255 
-0.251268 0.183576 1.58383 0 0 0 205 110 90 255 
0.143254 0.1136 1.72234 0 0 0 186 91 71 255 
-0.0786019 0.251906 1.49628 0 0 0 146 38 26 255 
-0.0570005 0.237511 1.52078 0 0 0 112 55 25 255 
0.126365 0.169686 1.6099 0 0 0 188 89 68 255 
-0.091594 0.25038 1.49311 0 0 0 151 41 26 255 
-0.151577 0.0281014 1.87749 0 0 0 171 73 48 255 
-0.226906 0.224844 1.55884 0 0 0 122 39 21 255 
-0.243285 0.0665641 1.84174 0 0 0 170 76 40 255 
-0.120478 0.231739 1.52263 0 0 0 125 20 14 255 
0.0349884 0.042211 1.87223 0 0 0 156 75 46 255 
0.0785939 0.191887 1.553 0 0 0 152 81 49 255 
0.13542 0.107846 1.68111 0 0 0 190 102 82 255 
-0.0714747 0.258455 1.4876 0 0 0 146 32 21 255 
-0.271559 0.143271 1.67356 0 0 0 140 40 24 255 
-0.134394 0.246161 1.51193 0 0 0 146 29 19 255 
-0.0236291 0.239166 1.51897 0 0 0 131 71 35 255 
-0.273791 0.0993323 1.76261 0 0 0 202 106 84 255 
0.121585 0.162835 1.59858 0 0 0 174 75 54 255 
-0.133396 0.246903 1.50014 0 0 0 152 38 27 255 
-0.0463107 0.0726306 1.81701 0 0 0 129 10 12 255 
-0.0909678 0.255296 1.4939 0 0 0 153 37 24 255 
-0.0155306 0.241899 1.51511 0 0 0 169 73 51 255 
-0.111682 0.246561 1.49008 0 0 0 147 37 22 255 
-0.178301 0.0279014 1.87255 0 0 0 175 64 44 255 
0.0229445 0.0392913 1.87171 0 0 0 160 59 39 255 
-0.113503 0.246831 1.50408 0 0 0 148 47 27 255 
-0.0559703 0.247033 1.50917 0 0 0 93 14 7 255 
-0.113022 0.214694 1.53254 0 0 0 101 13 9 255 
-0.254546 0.0783421 1.82054 0 0 0 139 31 19 255 
-0.231809 0.0651261 1.84455 0 0 0 162 42 17 255 
-0.267045 0.183135 1.633 0 0 0 149 53 31 255 
-0.279542 0.120576 1.74098 0 0 0 162 46 23 255 
-0.0947392 0.231287 1.51321 0 0 0 131 24 14 255 
0.0451834 0.213504 1.52952 0 0 0 177 76 48 255 
-0.311653 0.138292 1.69765 0 0 0 178 78 42 255 
-0.267733 0.100527 1.78931 0 0 0 206 108 83 255 
-0.0364859 0.235969 1.52052 0 0 0 145 85 35 255 
-0.307683 0.167862 1.6318 0 0 0 170 77 36 255 
-0.0586112 0.251426 1.49659 0 0 0 178 73 44 255 
-0.245236 0.212706 1.52277 0 0 0 182 55 38 255 
-0.0361885 0.229064 1.52049 0 0 0 155 88 33 255 
0.110932 0.205357 1.56744 0 0 0 166 88 52 255 
0.142293 0.163422 1.64011 0 0 0 185 91 66 255 
-0.0658097 0.230422 1.4918 0 0 0 182 87 59 255 
0.144924 0.131537 1.67598 0 0 0 192 97 75 255 
-0.279883 0.151928 1.69493 0 0 0 139 33 20 255 
0.146836 0.120559 1.69102 0 0 0 171 75 50 255 
-0.290728 0.152151 1.67848 0 0 0 195 110 89 255 
-0.230397 0.216903 1.52578 0 0 0 129 40 24 255 
-0.0140895 0.22992 1.52072 0 0 0 151 76 37 255 
-0.0213824 0.0289375 1.88107 0 0 0 156 57 38 255 
0.0624091 0.0465725 1.8437 0 0 0 153 66 38 255 
-0.0476585 0.0370268 1.8792 0 0 0 106 27 22 255 
-0.283111 0.183242 1.61956 0 0 0 120 30 21 255 
-0.239064 0.202172 1.59294 0 0 0 129 43 26 255 
0.0106075 0.220473 1.51551 0 0 0 153 54 33 255 
-0.0791238 0.229106 1.50024 0 0 0 135 38 29 255 
-0.157082 0.21867 1.51267 0 0 0 144 48 26 255 
0.00259853 0.219914 1.51329 0 0 0 154 59 37 255 
-0.0588518 0.2446 1.50921 0 0 0 102 17 14 255 
-0.231505 0.0689151 1.83018 0 0 0 161 51 36 255 
-0.161452 0.038344 1.88708 0 0 0 168 83 42 255 
-0.126997 0.230533 1.50779 0 0 0 141 41 25 255 
-0.288342 0.124643 1.72165 0 0 0 136 35 25 255 
-0.0508196 0.244371 1.5102 0 0 0 147 55 34 255 
-0.278628 0.141909 1.70553 0 0 0 167 62 41 255 
-0.214509 0.21775 1.55779 0 0 0 174 78 54 255 
-0.162847 0.0374996 1.87575 0 0 0 213 115 90 255 
-0.077641 0.216294 1.50972 0 0 0 185 102 88 255 
0.0864359 0.184859 1.56458 0 0 0 167 73 48 255 
-0.0670908 0.215985 1.52451 0 0 0 155 36 16 255 
0.132715 0.0288244 1.82919 0 0 0 218 100 52 255 
-0.202132 0.0508904 1.87365 0 0 0 195 91 62 255 
0.0978234 0.0530045 1.84416 0 0 0 218 100 54 255 
-0.254844 0.187309 1.59125 0 0 0 192 88 61 255 
