ply
format ascii 1.0
comment Created by Open3D
element vertex 1281
property double x
property double y
property double z
property uchar red
property uchar green
property uchar blue
end_header
0.261289 -0.034999 1.54817 64 80 51
0.259937 -0.0049896 1.57285 81 96 63
0.197538 -0.339324 1.15688 138 148 124
-0.130882 0.0821713 1.56637 125 127 62
0.24358 -0.247956 1.17599 90 114 54
-0.183898 -0.404545 1.62491 89 113 35
0.208206 -0.340833 1.18931 139 147 126
0.348706 -0.0237129 1.47564 63 80 48
-0.164948 -0.415689 1.59695 86 114 29
0.198377 -0.313851 1.16264 118 131 103
-0.0833025 -0.189422 1.23962 214 222 201
0.237231 -0.264044 1.15887 96 116 63
-0.0804415 -0.435917 1.35136 152 156 106
0.135562 -0.360832 1.11242 107 122 81
0.125255 -0.0866201 1.25523 146 152 56
0.319742 0.13281 1.38981 129 137 78
0.269149 0.193429 1.36114 97 113 40
0.0647525 -0.370245 1.13067 94 107 64
0.176171 -0.277204 1.20361 72 95 39
0.263587 0.00811054 1.57867 70 85 46
0.304545 0.238169 1.41782 95 98 43
0.0918933 -0.377873 1.12818 105 123 75
0.217725 -0.271093 1.15747 62 86 36
-0.280273 -0.133385 1.71319 99 111 65
0.0837364 -0.392396 1.14794 112 130 82
-0.209938 -0.417959 1.67827 94 118 34
-0.132809 -0.477759 1.57725 104 126 51
-0.180854 -0.416434 1.60481 87 109 45
0.251893 0.152295 1.29608 99 101 52
-0.016273 -0.217661 1.17365 84 99 44
-0.216804 -0.429496 1.43895 90 115 47
0.0979735 -0.391378 1.14616 74 97 43
-0.235514 -0.424547 1.42719 57 76 31
0.345893 0.344091 1.49571 93 117 39
0.341124 0.146244 1.37872 96 109 53
0.340842 -0.0261972 1.49719 50 60 35
0.254312 0.0359583 1.61064 117 118 58
0.256569 0.036876 1.62178 116 117 57
0.461623 0.196751 1.63351 128 136 59
0.451911 0.178784 1.60922 117 127 54
-0.103207 -0.447627 1.13553 72 92 55
0.0893412 -0.38554 1.13726 108 121 75
-0.0999218 -0.30387 1.42592 94 118 40
-0.153159 -0.383236 1.61738 59 79 30
-0.0146221 -0.475231 1.1846 77 110 29
-0.00204704 -0.468261 1.20519 79 111 36
0.432232 0.20455 1.57248 112 123 44
0.315741 0.246575 1.39513 85 100 35
0.317493 0.196207 1.44937 85 99 38
0.0832267 -0.362639 1.12364 72 90 48
0.0744878 0.195067 1.22703 74 102 41
-0.0350233 -0.445906 1.17267 85 113 38
0.355554 0.315071 1.50216 93 116 38
-0.187991 -0.404091 1.69264 87 106 42
-0.0611021 -0.454285 1.19259 78 99 30
0.143741 0.1751 1.19313 86 112 39
0.110891 0.229765 1.21034 75 97 32
-1.10425 0.430083 1.43083 137 138 133
0.252086 -0.17909 1.14524 104 126 41
0.188675 0.143126 1.26322 80 102 40
-0.104776 -0.291547 1.40588 94 113 34
-0.257509 -0.377479 1.47726 87 108 43
0.315416 0.19252 1.45648 77 91 32
0.310367 0.241081 1.42699 87 103 40
-0.141756 -0.383185 1.5847 61 81 32
0.351114 0.312684 1.4683 94 113 32
-0.121027 -0.224923 1.22958 78 99 40
-0.128985 -0.276213 1.34787 105 125 38
-0.0982386 -0.150426 1.20833 68 87 31
0.110899 -0.0888605 1.28141 120 131 53
0.0961533 0.227768 1.25318 83 103 32
-0.180503 -0.431518 1.58997 88 101 45
0.106487 -0.48278 1.61622 107 110 65
0.125132 -0.199239 1.29795 92 93 35
-0.346605 -0.0493477 1.68708 70 90 29
0.195814 0.0911253 1.28636 171 189 103
0.106904 -0.505359 1.61591 100 107 63
0.343199 -0.0345002 1.58495 60 74 39
0.05635 -0.531579 1.62346 146 149 92
-0.334049 -0.148183 1.6823 127 135 78
0.346384 -0.111664 1.61148 83 103 52
0.177246 0.0430127 1.65352 134 135 65
0.0780096 -0.52043 1.62676 142 151 86
0.0886616 -0.549684 1.5478 77 97 48
-0.169582 0.018004 1.58563 81 103 30
-0.290181 -0.165207 1.43323 95 105 45
0.10142 -0.32346 1.34444 64 77 33
0.0358531 -0.550715 1.58517 172 173 113
-0.188674 -0.433498 1.59102 119 132 76
0.325508 -0.0131278 1.56271 94 113 67
0.13372 -0.494795 1.49003 170 186 124
0.13482 -0.494745 1.51058 88 103 38
-0.143657 -0.310885 1.71009 83 104 48
-0.163537 -0.42175 1.6029 124 142 82
0.314668 -0.029046 1.60602 38 54 27
-0.148627 -0.363395 1.69989 77 94 49
0.275473 0.00100974 1.59605 51 67 38
-0.197742 -0.21794 1.68244 76 102 28
-0.00339957 -0.446344 1.62872 61 76 33
-0.15141 -0.40752 1.60383 96 118 56
0.0290051 -0.505516 1.6393 114 125 56
0.319904 -0.029725 1.54973 86 101 60
0.164311 -0.136642 1.33635 129 131 66
0.0808543 -0.509612 1.5597 78 100 38
0.233509 0.357744 1.69827 130 146 57
-0.160906 -0.449423 1.5793 87 105 57
0.229363 -0.326533 1.25035 57 75 27
-0.198639 -0.201174 1.55051 82 104 42
0.0807148 -0.516522 1.5685 63 75 39
0.0232497 -0.49128 1.63751 94 105 39
-0.271629 -0.166565 1.7014 98 114 52
0.0833394 -0.524395 1.54835 59 76 31
-0.156444 -0.434472 1.60049 99 114 59
0.110812 -0.479745 1.54475 92 115 35
0.311608 0.0845749 1.606 121 137 49
0.0937842 -0.538448 1.5168 117 125 65
0.327147 -0.00848515 1.58187 61 80 48
0.102736 -0.527953 1.52157 132 133 75
0.0995732 -0.523318 1.52022 128 134 72
-0.156579 -0.362392 1.60198 57 77 26
-0.013858 -0.123718 1.66413 61 83 45
0.0882418 -0.541429 1.52241 94 102 43
0.109273 -0.516649 1.5262 135 141 71
-0.164327 -0.411546 1.6706 129 138 85
-0.156414 -0.262156 1.71004 55 70 27
0.314346 -0.0093769 1.59013 44 65 34
0.137002 -0.498869 1.4746 96 121 64
0.224944 0.0885416 1.60023 123 124 64
0.117398 -0.399548 1.35759 52 65 37
-0.271091 -0.154385 1.70054 89 104 47
0.212169 -0.328846 1.20918 78 98 47
0.201868 -0.300983 1.19855 89 114 48
0.131208 -0.498192 1.49847 104 128 52
-0.188989 -0.41937 1.60517 88 109 52
0.128316 0.0796651 1.34292 95 107 45
-0.153082 -0.438213 1.575 60 76 39
0.118972 -0.478325 1.53935 83 97 35
0.122383 -0.0980132 1.27857 124 134 63
0.0936274 -0.493629 1.56229 66 85 39
0.0786371 -0.540988 1.58154 84 95 39
0.101246 -0.516156 1.52956 95 109 48
0.114163 -0.513122 1.52414 119 139 54
0.135906 -0.48535 1.53055 93 98 42
0.123904 -0.501659 1.52204 77 95 35
0.0876893 -0.492461 1.56323 64 83 37
-0.146475 -0.309005 1.72007 41 55 19
0.0857393 -0.501377 1.56811 57 73 34
-0.170953 -0.262566 1.71676 46 58 20
0.0795779 -0.327259 1.37488 60 79 24
-0.259945 -0.134368 1.6958 76 91 36
-0.243614 -0.224287 1.53729 81 102 43
-0.241611 -0.215806 1.54726 85 107 42
-0.193766 -0.423255 1.64058 101 115 56
-0.282816 -0.132208 1.61797 123 133 37
0.121122 -0.534455 1.48416 97 119 55
0.131833 -0.474996 1.53508 79 88 33
0.0975572 -0.495123 1.56943 60 77 32
0.265175 -0.324673 1.23107 34 48 13
0.126507 -0.131829 1.32819 115 127 43
0.103312 -0.45047 1.55539 48 63 22
0.11206 -0.103706 1.31744 112 127 44
-0.155397 -0.310507 1.7234 36 50 15
0.0830835 -0.5215 1.62299 92 100 49
-0.180398 -0.282969 1.70309 45 59 23
-0.14682 -0.295717 1.70715 59 82 26
-0.149076 -0.358614 1.70387 38 52 19
-0.16884 -0.401201 1.66437 96 111 54
-0.191567 -0.389709 1.6648 97 107 55
-0.148188 -0.30241 1.71331 41 55 19
-0.153114 -0.425814 1.61338 67 85 35
0.0746973 -0.113272 1.60144 108 111 30
-0.278439 -0.190662 1.48209 99 122 52
0.00309866 -0.51844 1.62512 89 104 47
0.0073637 -0.464113 1.64283 102 110 63
-0.152969 -0.393594 1.68641 131 140 87
0.0520526 -0.0624467 1.35455 100 111 42
0.0907363 0.290735 1.23086 111 113 99
0.335297 -0.0207338 1.54131 65 77 39
0.199608 0.122606 1.29774 83 107 31
0.109644 0.17893 1.20457 83 103 31
-0.249504 -0.0472933 1.63085 108 109 77
0.338031 -0.05509 1.50588 57 73 37
-0.183999 -0.422202 1.62701 171 182 106
-0.138317 -0.432616 1.59539 90 108 50
-0.222623 -0.172751 1.54983 86 112 41
-0.199486 7.27704e-05 1.65373 95 103 30
0.184753 0.158665 1.28755 86 99 45
0.243969 0.00668447 1.66542 140 145 61
-0.306833 -0.0816826 1.61127 94 110 37
-0.0263061 -0.0832579 1.66967 101 103 53
-0.0202708 -0.138152 1.56655 108 111 90
0.306527 -0.00742789 1.59587 38 54 27
0.238272 0.4003 1.72016 124 140 51
0.285498 0.324439 1.66114 119 132 52
-0.132986 -0.0987983 1.66254 173 174 106
0.355738 0.302213 1.71804 80 108 34
0.342084 -0.0434292 1.52401 52 66 33
0.0146431 -0.0790619 1.68229 72 82 29
0.0937728 -0.0854742 1.34932 85 110 29
0.0831432 -0.511205 1.59212 81 93 53
-0.168749 -0.409341 1.61865 72 88 41
-0.240927 -0.232775 1.58884 58 73 30
-0.0430019 -0.506161 1.6013 99 120 64
0.356438 -0.055301 1.555 58 72 36
0.335693 -0.0234453 1.55712 84 103 48
0.0840222 -0.487656 1.5774 60 74 39
0.0335601 -0.0940037 1.60013 57 64 31
0.214728 0.0987357 1.28141 85 123 50
-0.0123951 -0.495178 1.63173 96 117 60
-0.173658 -0.408405 1.67131 121 131 78
-0.184858 -0.416574 1.65433 133 139 79
0.339134 0.0399636 1.60146 82 85 40
0.141726 0.123922 1.26437 80 103 35
0.036236 -0.102186 1.65827 92 120 59
0.12529 -0.433557 1.52325 73 86 32
-0.136628 -0.38558 1.67227 87 107 56
0.203687 0.182661 1.29877 88 96 45
0.311247 0.311641 1.67821 115 129 52
0.0487374 -0.108973 1.67849 61 82 39
-0.289106 -0.165109 1.70444 114 129 60
0.0810818 -0.0842509 1.2859 114 126 44
-0.159815 -0.40747 1.63657 104 128 52
-0.216924 -0.44308 1.59289 67 94 43
-0.182574 -0.433364 1.5924 115 130 73
0.36049 -0.04009 1.56602 43 58 25
-0.121304 -0.346643 1.64256 53 67 31
0.022037 -0.103862 1.64774 82 93 50
-0.413463 -0.158164 1.48724 113 143 71
-0.218092 -0.429383 1.6119 71 94 40
0.101235 -0.461292 1.55658 76 102 37
0.345314 -0.039204 1.52531 47 58 28
-0.157026 -0.31925 1.71927 51 64 34
-0.279972 -0.154129 1.70728 81 100 44
0.0359961 -0.117982 1.60263 61 68 37
0.0957722 -0.0897522 1.27824 119 131 49
0.0707228 -0.52131 1.61332 126 136 73
-0.1524 -0.287335 1.71931 41 55 22
0.105144 -0.455451 1.555 68 93 28
0.152894 -0.455643 1.52713 94 109 40
-0.0275708 -0.140749 1.56529 105 107 93
-0.145726 -0.283276 1.69757 33 49 13
-0.148266 -0.30551 1.72509 69 89 40
-0.245904 -0.218254 1.55905 85 103 43
-0.158345 -0.405821 1.67308 104 113 66
-0.148459 -0.393982 1.61658 32 48 12
0.110259 -0.147717 1.2944 113 121 44
-0.165039 -0.415863 1.63981 132 148 75
0.103711 -0.458553 1.56412 51 63 25
-0.183927 -0.45717 1.57468 69 83 50
0.102154 -0.483784 1.55735 84 109 44
-0.165876 -0.390906 1.61891 46 64 16
-0.177726 -0.414344 1.65616 132 137 83
-0.294381 -0.0919418 1.69507 78 96 34
0.227249 0.0496507 1.33455 73 95 30
0.117083 -0.0922566 1.27449 124 134 63
0.330013 -0.039755 1.58135 34 48 25
0.30218 0.00158045 1.57354 32 46 23
0.0825614 0.174169 1.23933 85 106 37
0.0578981 -0.529595 1.60934 119 131 67
0.348056 0.119879 1.48337 104 122 48
0.189646 -0.143166 1.14886 143 150 55
0.353891 0.289395 1.73626 86 117 41
-0.143758 -0.325311 1.69715 45 56 26
0.104846 -0.459014 1.54234 69 87 35
-0.179621 -0.409642 1.66163 123 132 77
0.094548 -0.0749252 1.2931 128 141 59
0.0962256 -0.489375 1.55484 56 71 28
-0.239271 -0.214422 1.55418 106 129 51
0.0256784 -0.483248 1.63414 71 74 29
0.0658958 -0.524876 1.61916 112 119 67
0.101043 -0.106842 1.29916 114 127 45
0.183219 0.18758 1.24616 44 60 21
0.126615 -0.454159 1.54319 66 81 26
0.22577 0.400249 1.8072 92 103 35
-0.153783 -0.283669 1.72163 40 54 19
-0.143657 -0.299533 1.71994 35 51 15
0.150303 -0.365451 1.11907 68 89 33
-0.298071 -0.0997907 1.6126 113 130 36
-0.254477 -0.097919 1.67886 114 128 75
0.221873 -0.287423 1.13798 142 149 118
0.13902 -0.368725 1.12133 95 112 58
-0.0464222 -0.295091 1.39747 207 209 188
0.153862 -0.077621 1.30577 102 114 40
-0.0311277 -0.297383 1.33424 217 228 194
0.104558 -0.473162 1.23579 87 120 29
0.0470356 -0.384023 1.05933 146 153 109
-0.0922529 -0.247516 1.25825 100 121 56
0.416231 0.305739 1.62272 182 183 126
0.165315 -0.259026 1.20892 131 139 102
-0.0279619 -0.231412 1.18212 97 106 53
0.35157 0.28501 1.47716 101 117 46
-0.111981 -0.285601 1.35426 106 127 36
0.168931 0.204175 1.23651 94 112 50
-0.0829612 -0.159777 1.21747 97 109 59
0.429807 0.292958 1.64286 131 143 69
-0.195716 -0.011377 1.56985 147 148 78
0.290159 0.256914 1.38621 106 122 60
0.230401 -0.287155 1.15035 120 127 93
-0.0380371 -0.368723 1.15596 76 95 49
-0.233153 -0.0846886 1.62331 118 128 76
-0.291474 -0.0849329 1.60968 99 104 40
-0.145608 -0.39489 1.61181 63 84 28
0.428548 0.280443 1.6624 127 140 70
0.150904 -0.0732941 1.36063 74 96 32
0.432783 0.305597 1.66167 133 143 72
0.297189 0.252914 1.40162 95 114 50
0.0763565 -0.42474 1.17255 125 143 85
0.309244 -0.0369375 1.4518 89 107 69
0.16829 0.197373 1.23048 85 107 43
0.236993 -0.237037 1.14173 96 117 58
-0.0201804 -0.370318 1.13409 86 103 59
-0.225497 -0.100064 1.67906 92 93 59
0.208984 -0.301547 1.15968 78 99 40
-0.0996873 -0.189545 1.21739 92 115 45
0.0845385 -0.367484 1.1209 92 112 63
0.111405 -0.0634402 1.3063 93 109 46
-0.137683 -0.419971 1.59758 82 96 34
-0.192188 -0.409953 1.58542 92 106 47
-0.12305 -0.434462 1.50219 80 97 42
0.324858 0.017846 1.56093 25 34 15
0.219996 -0.266207 1.1412 67 86 40
-0.081962 -0.148934 1.21986 75 96 37
0.0859498 -0.443716 1.17899 100 117 75
0.359225 0.330071 1.46489 112 130 48
0.163127 -0.313615 1.10776 72 84 46
0.426236 0.291108 1.64978 116 133 62
0.253327 0.095502 1.437 112 134 72
0.322747 0.228843 1.47724 102 116 55
0.220211 -0.215733 1.15388 90 111 52
0.122059 -0.365106 1.08339 94 110 63
-0.0676199 -0.416892 1.31887 97 105 58
0.119783 0.189093 1.22535 83 109 38
-0.035046 -0.190549 1.22691 77 97 36
-0.078605 -0.150824 1.22551 80 97 45
-0.0994202 -0.115825 1.16037 74 95 39
0.200596 0.108637 1.27665 93 101 41
-0.149621 -0.423988 1.59086 79 97 35
-0.0357762 -0.439985 1.11233 93 124 46
0.140824 0.17316 1.22311 91 116 48
-0.283655 -0.210756 1.55409 100 122 58
-0.0315327 -0.367674 1.13023 68 85 43
0.174799 0.191064 1.22563 80 102 40
-0.03059 -0.207931 1.25329 81 101 38
-0.0302486 -0.193507 1.24604 72 90 30
0.175966 -0.174308 1.18836 87 109 36
0.174797 -0.246117 1.1978 101 122 55
0.273592 -0.201388 1.17059 99 117 41
-0.0570995 -0.199764 1.22926 80 101 32
-0.0944574 -0.161393 1.20331 85 106 41
0.230538 -0.151989 1.14737 96 121 38
-0.0710167 -0.455853 1.17589 95 119 35
0.212182 -0.193005 1.15602 92 115 43
-0.168462 -0.373495 1.61977 72 90 42
0.256627 -0.193447 1.15381 103 122 43
0.185299 0.130035 1.2624 84 106 44
0.144375 -0.232731 1.19583 72 90 42
0.197 -0.230784 1.16687 56 74 34
0.232571 -0.206328 1.15273 91 113 40
0.225362 -0.177303 1.1495 104 126 43
0.234657 -0.173982 1.15208 101 123 40
-0.0852773 -0.452721 1.10833 97 120 38
0.116551 0.247012 1.2373 67 92 27
-0.0935805 -0.163263 1.21401 87 108 41
0.10605 0.25488 1.23019 78 104 31
-0.269636 -0.154406 1.44516 87 111 37
0.214362 0.105951 1.26924 70 90 37
0.116998 0.215874 1.21463 70 92 30
0.247755 -0.152585 1.15857 90 114 38
0.134695 0.226606 1.21944 65 83 31
-0.227472 -0.411631 1.42906 60 80 31
-0.163823 -0.376387 1.60274 60 75 32
-0.0421371 -0.181472 1.23808 79 97 37
0.0901207 -0.0935704 1.277 108 122 34
-0.104662 -0.16732 1.17609 91 115 37
-0.2753 -0.164079 1.46357 90 114 38
-0.0811125 -0.459221 1.18834 85 110 29
0.0982234 0.2187 1.2189 78 105 34
0.106397 0.254706 1.25206 73 98 30
-0.16044 -0.428962 1.16158 73 97 47
-0.0456717 -0.325371 1.14135 52 69 37
0.107472 0.196916 1.21378 77 103 38
-0.0499749 -0.188654 1.21091 72 94 32
0.356637 0.341532 1.56536 98 117 36
-0.105721 -0.14 1.18434 80 103 35
-0.253463 -0.119727 1.70544 97 113 48
-0.0424125 -0.199989 1.23875 68 90 25
0.190293 0.178084 1.31272 68 88 37
0.0802729 0.203712 1.23967 51 69 27
0.315612 0.116523 1.47639 72 88 43
0.334599 0.0997186 1.44139 86 113 42
0.343117 0.0602003 1.59101 127 140 50
-0.23991 -0.418944 1.57403 175 183 144
-0.195608 -0.364305 1.65741 145 148 117
0.00656537 -0.153372 1.5223 148 162 65
0.356194 0.0770062 1.5782 125 128 51
-0.275227 -0.419224 1.53229 192 206 153
0.328376 0.103101 1.43764 97 124 45
-0.257269 -0.400998 1.57907 135 150 33
0.0633096 -0.0812504 1.59229 129 134 44
-0.052162 -0.289263 1.32451 189 192 163
0.335086 0.0646223 1.5727 106 119 49
0.0485719 -0.104882 1.26042 150 164 69
-0.265898 -0.395319 1.53972 120 145 27
-0.153866 -0.314891 1.66451 76 92 55
0.319646 0.0702715 1.61352 131 145 57
-0.307735 -0.395167 1.57332 167 175 124
-0.165323 -0.403212 1.64411 109 127 51
-0.315689 -0.227453 1.62279 176 184 137
-0.153772 -0.340235 1.59918 175 184 137
-0.271189 -0.425903 1.5532 128 143 84
-0.317059 -0.373477 1.49622 122 151 33
0.0674271 -0.249395 1.26435 115 125 52
-0.108966 -0.228293 1.44668 163 172 127
-0.049552 -0.288807 1.31563 189 194 164
0.0012589 -0.152613 1.53336 145 150 84
0.314679 0.0650654 1.605 123 140 44
0.332754 0.13182 1.39142 97 116 34
-0.30472 -0.348366 1.55294 170 171 131
-0.143859 -0.391495 1.65272 110 122 82
-0.271784 -0.0456335 1.60251 107 119 35
0.337981 0.0741867 1.55633 89 96 44
0.381928 -0.0411185 1.50776 75 96 57
-0.159802 -0.323411 1.66917 137 159 112
0.391776 -0.0484004 1.53047 96 116 63
-0.117091 -0.194941 1.31897 170 177 143
0.295991 0.101119 1.42955 97 110 57
-0.121181 -0.105379 1.19056 174 187 133
0.115166 -0.398594 1.50467 132 140 89
-0.12077 -0.191135 1.3125 182 189 156
0.209866 0.215017 1.27219 147 153 81
0.336923 -0.031577 1.45921 62 90 41
-0.283633 -0.184113 1.69346 126 144 86
-0.147692 -0.331867 1.70329 100 116 71
0.337658 0.141918 1.41167 93 127 40
-0.125888 -0.378785 1.63678 109 128 82
-0.146704 -0.198358 1.33136 178 184 148
-0.233921 -0.411588 1.58267 133 146 64
-0.210144 0.00888377 1.59465 116 134 48
0.338629 0.115335 1.45753 106 116 56
0.0536593 -0.176642 1.62436 112 122 70
-0.324726 0.684684 1.03469 135 136 131
-0.142569 -0.414798 1.58866 128 144 95
0.0361531 -0.174234 1.62128 96 117 52
-0.154469 -0.346888 1.70428 91 105 56
-0.128134 -0.410306 1.59404 154 171 119
0.0717259 -0.191701 1.23526 128 132 73
-0.250679 -0.394479 1.59385 165 169 132
0.0609555 -0.26119 1.28458 109 111 46
-0.259098 -0.406912 1.56121 93 105 31
-0.328705 -0.38896 1.46155 181 185 148
-0.14151 -0.308585 1.67936 70 92 46
0.357889 -0.0181352 1.46865 40 54 28
0.361741 0.141485 1.39312 129 153 77
0.145237 0.205086 1.21664 99 120 55
-0.142235 -0.346759 1.67914 60 72 34
-0.154395 -0.355718 1.70191 84 100 53
-0.0609431 -0.302264 1.36368 95 118 40
-0.160014 -0.20128 1.34147 177 178 144
0.0569896 -0.100869 1.64318 93 118 61
0.338837 0.0554996 1.57449 108 115 48
0.322065 0.10044 1.45691 55 71 35
-0.313149 -0.37286 1.48867 128 150 39
0.327417 0.101542 1.46924 70 86 41
0.352471 0.113314 1.47323 130 145 76
-0.228841 -0.410114 1.57594 133 146 76
0.276655 0.148015 1.34125 80 86 40
-0.317809 -0.402085 1.53141 125 150 32
-0.257459 -0.170437 1.68197 130 141 81
-0.234807 -0.413234 1.58612 135 143 68
-0.15101 -0.36017 1.69985 91 103 53
-0.135247 -0.193802 1.28705 105 131 40
0.358439 -0.0537012 1.53824 124 139 74
-0.134117 -0.202497 1.30424 93 119 32
0.344052 -0.0273839 1.46583 51 67 38
-0.149681 -0.419831 1.59789 138 152 103
0.292593 0.0964386 1.48417 51 65 30
-0.315963 -0.374935 1.46368 129 140 38
0.303194 0.10943 1.48844 61 76 37
0.333333 0.137651 1.40068 105 135 47
0.326703 0.133876 1.39937 119 143 57
0.328209 0.132613 1.39886 117 142 50
0.0187373 -0.272659 1.32548 123 131 71
0.0358511 -0.110877 1.65342 105 128 74
0.279159 0.101518 1.39802 74 94 45
-0.147908 -0.417542 1.5809 126 143 89
-0.262303 -0.389702 1.5723 143 153 57
0.316302 0.127527 1.39843 92 103 37
-0.293731 -0.160366 1.45926 96 124 39
0.309172 0.0973165 1.46506 50 63 33
-0.300991 -0.360768 1.47495 123 138 43
-0.3075 -0.360999 1.54548 126 148 39
0.108001 0.19611 1.21145 77 109 42
-0.170186 -0.225414 1.32586 129 149 54
0.204019 0.203062 1.31712 79 94 35
-0.289986 -0.377281 1.4869 118 145 32
-0.126566 -0.214169 1.29817 101 128 35
0.112602 0.192759 1.20665 74 105 38
0.272742 0.105401 1.39387 76 95 50
0.35786 -0.0387656 1.49035 64 89 49
0.347127 0.10304 1.43687 81 109 34
-0.145277 -0.321599 1.68571 54 76 30
-0.321793 -0.397699 1.50695 123 152 36
0.335032 0.137094 1.40473 83 114 36
0.230362 0.111484 1.27949 56 71 28
0.276072 0.0969157 1.39913 68 84 45
-0.366802 -0.399449 1.51039 117 145 35
0.211147 0.201478 1.32004 72 91 36
-0.14663 -0.28675 1.70136 60 79 34
-0.19549 -0.208592 1.32765 93 117 31
0.323058 0.104465 1.46623 70 87 43
-0.0213246 -0.378511 1.43733 104 124 55
-0.13879 -0.203768 1.32039 84 106 33
-0.0624034 -0.307537 1.36005 96 118 43
-0.139504 -0.354506 1.67163 60 71 37
-0.224254 -0.400781 1.58312 120 141 38
-0.161723 -0.237797 1.36275 114 133 51
-0.0502892 -0.0474289 1.47971 118 134 46
0.145132 0.20797 1.21932 102 126 50
0.390021 -0.0373759 1.51602 82 98 61
0.327855 0.133024 1.39369 108 127 45
0.0910942 0.200015 1.21755 104 137 46
0.286219 -0.189297 1.18069 122 135 45
-0.139316 -0.327784 1.57696 113 129 67
-0.175469 -0.43445 1.5905 152 162 125
-0.143986 -0.300295 1.68049 56 79 35
-0.0305126 -0.290292 1.33775 85 108 40
0.316345 0.243494 1.40883 76 91 34
0.336358 0.112462 1.45048 71 84 38
0.164722 0.209163 1.23113 93 113 52
-0.133902 -0.203104 1.28258 98 127 35
0.302975 0.0939208 1.46481 53 69 40
-0.314121 -0.417165 1.52887 116 139 31
0.0337447 -0.111393 1.64702 105 128 58
-0.15693 -0.426993 1.5932 155 162 121
0.318954 0.14078 1.41789 79 107 32
-0.0683559 -0.295847 1.35089 68 89 32
-0.194505 -0.433338 1.56844 80 99 33
-0.0156031 -0.167233 1.26879 92 98 34
0.304875 0.0864407 1.45287 65 82 50
-0.189667 -0.00512919 1.57279 125 127 54
-0.329132 -0.395361 1.55976 128 155 38
0.0177962 -0.271769 1.32216 118 128 67
0.349307 0.114911 1.48802 108 127 48
0.143833 0.21766 1.22244 101 120 54
0.317785 0.104709 1.40351 104 114 53
0.325175 0.102614 1.45309 61 77 40
-0.302342 -0.400443 1.51794 122 151 35
0.0738908 -0.261048 1.33205 118 119 61
0.223494 0.118068 1.29184 65 88 36
0.0381443 -0.104708 1.65295 67 95 46
0.0478327 -0.163302 1.60968 61 71 34
-0.35786 -0.397188 1.5558 123 153 31
0.354709 0.0231133 1.54983 40 48 25
0.294366 0.109238 1.49303 59 74 33
-0.254317 -0.186577 1.49804 120 140 43
-0.322943 -0.238041 1.65536 148 160 88
0.350222 0.108986 1.47384 89 109 46
-0.189628 -0.412797 1.65149 114 129 64
0.150079 0.204478 1.22673 97 121 45
-0.321738 -0.363499 1.54459 116 142 35
0.319445 0.0960302 1.44365 73 100 47
0.0871855 -0.183853 1.23813 132 146 61
-0.148658 0.00364478 1.62774 123 134 38
0.288819 -0.183139 1.19051 110 122 40
-0.330016 -0.393156 1.52738 125 155 33
0.344167 0.103788 1.50234 85 103 51
-0.131397 -0.29885 1.68948 66 87 44
0.296204 0.107825 1.40248 75 91 44
0.231407 0.209008 1.31635 67 80 34
-0.146177 -0.270146 1.69503 58 82 32
0.33255 -0.0449477 1.47466 45 67 28
-0.152064 -0.35136 1.69464 57 69 31
-0.1231 -0.356218 1.65091 72 84 44
-0.142228 -0.319507 1.69205 69 87 45
-0.317889 -0.371747 1.51855 124 153 34
0.328432 0.174954 1.45922 88 98 38
0.0286683 -0.176465 1.63028 59 76 32
0.166609 0.205503 1.23451 75 102 35
-0.184146 0.0105299 1.54951 113 114 46
-0.276174 -0.39315 1.48543 107 132 30
-0.148375 -0.306706 1.66791 69 86 44
0.322225 0.131369 1.40649 87 99 35
0.230441 0.198381 1.30671 57 81 31
0.223251 0.108932 1.27964 45 57 21
0.344228 0.10638 1.49077 81 102 46
0.311343 0.101667 1.49084 73 92 47
-0.286489 -0.169885 1.46926 105 131 44
-0.154064 -0.229585 1.31652 101 130 37
-0.165169 -0.0795214 1.51731 127 133 73
0.387509 -0.046439 1.52334 81 101 50
-0.313961 -0.231534 1.65773 136 148 76
-0.218759 0.851173 1.05309 12 13 8
-0.173626 -0.394311 1.65864 77 94 52
-0.119119 -0.351173 1.57662 114 128 67
-0.0309738 -0.177367 1.26815 95 107 35
0.330991 0.142306 1.385 92 112 43
-0.318189 -0.168966 1.48156 105 132 39
0.320129 0.102024 1.46132 56 69 39
-0.294742 -0.171767 1.46351 113 138 57
0.308788 0.10561 1.40479 94 108 47
-0.28108 -0.162427 1.4679 99 125 38
0.230121 0.203699 1.30533 64 87 31
-0.112066 -0.342438 1.64939 54 68 32
-0.136341 -0.334106 1.65772 50 67 23
-0.146826 -0.387724 1.60041 91 110 44
-0.155843 -0.277849 1.68845 57 79 32
0.330082 0.149016 1.42186 71 98 29
-0.141396 -0.213319 1.28913 102 129 32
-0.341043 -0.373791 1.53252 122 153 33
0.341476 0.0996472 1.43539 93 121 44
-0.326988 -0.382701 1.57274 136 155 39
-0.292717 -0.161905 1.47596 98 124 37
-0.313553 -0.357558 1.48531 120 146 36
-0.340816 -0.35404 1.51056 118 141 37
-0.172728 0.0121811 1.60462 106 116 30
-0.324158 -0.393384 1.55341 118 147 29
-0.208278 -0.430683 1.55482 80 101 32
0.328807 0.103901 1.49079 80 98 50
-0.183217 0.799835 1.0788 48 65 20
-0.142392 -0.203613 1.31013 91 120 28
-0.276498 -0.157076 1.44437 91 121 31
-0.102535 -0.432464 1.62515 38 49 15
-0.114133 -0.410407 1.62194 27 35 14
-0.166829 -0.369202 1.62455 171 172 140
0.143407 -0.183696 1.19998 179 183 148
0.357574 0.153458 1.40459 213 217 141
-0.146843 -0.378385 1.64833 94 114 65
0.209922 0.10569 1.29634 107 135 50
0.10064 -0.393094 1.28362 66 85 40
0.102458 -0.424014 1.55149 172 182 132
0.0493456 -0.248048 1.31419 115 141 31
0.0164702 -0.138738 1.59183 176 178 105
-0.146489 -0.352732 1.59432 102 121 57
-0.142459 -0.332332 1.59004 147 154 110
-0.151994 -0.338955 1.70442 95 113 55
-0.165218 -0.34828 1.61613 153 165 119
-0.124849 -0.49586 1.54778 119 149 37
0.180389 -0.187297 1.1927 135 144 55
-0.120409 -0.189229 1.30997 149 163 104
0.344584 0.0852517 1.58942 129 133 56
0.28565 -0.190713 1.18126 125 131 41
-0.235906 -0.431491 1.44213 212 220 183
-0.314778 -0.346051 1.5207 124 142 40
-0.0888147 -0.312523 1.55916 194 196 156
-0.115603 -0.184792 1.30874 157 167 115
-0.15211 -0.313027 1.71005 91 108 63
0.145562 0.197405 1.2189 110 134 58
-0.148783 -0.30714 1.70979 91 109 61
0.351749 -0.0471463 1.49789 62 89 46
0.397838 -0.0407716 1.53206 73 93 44
-0.134194 -0.378167 1.63461 63 83 34
0.0584304 -0.0917832 1.5781 139 140 64
0.303767 0.0893284 1.46417 59 74 45
0.0170696 -0.141894 1.54813 146 155 88
0.22513 0.115018 1.29468 73 95 33
-0.177392 -0.417106 1.63603 160 172 124
-0.142725 -0.355299 1.57698 188 191 148
-0.307431 -0.19655 1.66329 131 148 68
0.314914 0.097542 1.45944 61 76 45
0.18247 0.207854 1.24061 83 103 40
-0.270182 -0.363974 1.47989 125 143 35
-0.180425 -0.420708 1.63117 166 179 123
-0.144438 -0.365214 1.69558 89 102 58
0.264027 -0.181776 1.15902 130 147 67
-0.149406 -0.31836 1.70788 84 101 56
0.321421 0.109648 1.47562 91 105 56
-0.160987 -0.323132 1.72006 97 110 64
0.273163 0.135183 1.34159 138 143 76
-0.266462 -0.386419 1.58916 165 171 135
-0.148765 -0.372677 1.69422 96 109 56
-0.142051 -0.377087 1.68742 117 129 79
-0.287789 -0.358443 1.45243 177 180 135
-0.156636 -0.315984 1.72182 96 114 66
0.297955 0.101757 1.41673 82 100 52
0.327392 0.134693 1.41539 79 106 29
0.324371 0.141084 1.39192 112 133 42
0.0722896 -0.263847 1.30523 120 123 56
-0.158423 -0.402611 1.66468 127 143 96
-0.10498 -0.310334 1.55455 179 185 141
0.343868 0.155507 1.38732 91 114 46
0.221949 0.108045 1.28961 66 89 33
-0.287161 -0.381298 1.57006 179 190 122
0.308354 0.0966648 1.46552 50 63 33
0.29792 0.100558 1.47853 54 68 33
0.386119 -0.0408916 1.51806 78 95 50
0.0618403 -0.412695 1.59142 156 161 120
0.367139 -0.0207691 1.47497 43 57 31
0.270745 -0.185417 1.16563 130 143 63
-0.126555 -0.490107 1.54527 132 157 55
0.0684929 -0.253044 1.256 105 115 42
-0.150951 -0.341882 1.70928 92 105 59
-0.152061 -0.388796 1.68326 137 150 106
0.287154 -0.189316 1.18811 118 127 38
-0.157257 -0.311055 1.72457 94 110 63
-0.151916 -0.327697 1.70696 98 111 67
0.0914559 -0.102794 1.26333 163 168 74
0.298714 0.0919301 1.46946 57 72 43
0.280725 0.098174 1.4369 95 111 62
-0.288774 -0.360647 1.46909 123 141 39
0.32602 0.137064 1.41008 88 117 37
-0.292126 -0.3617 1.46415 119 133 36
0.242593 0.172998 1.3216 105 114 47
-0.296551 -0.356976 1.50288 124 151 34
-0.3111 -0.396888 1.51565 122 151 35
0.286761 0.0965159 1.42234 87 108 52
0.343704 0.121322 1.48165 111 125 48
-0.303457 -0.23167 1.6399 173 182 125
0.0292071 -0.145673 1.60133 111 128 57
0.29232 0.0967699 1.42396 104 125 69
0.343838 0.146779 1.40154 96 128 45
0.27787 -0.165553 1.17697 104 117 35
-0.128534 -0.372552 1.65734 68 80 44
0.316538 0.109435 1.47931 81 97 52
-0.151556 -0.332083 1.71081 88 104 59
0.113671 -0.429534 1.54393 101 113 39
0.296077 0.101015 1.42143 83 101 51
-0.327114 -0.189972 1.65146 127 154 47
0.311215 0.112354 1.49166 67 86 41
0.277296 0.0894294 1.40763 75 101 54
-0.150206 -0.290988 1.69168 58 77 31
-0.303757 -0.335658 1.49752 122 139 37
0.0518786 -0.09877 1.65335 78 105 52
0.263911 -0.152465 1.16415 116 128 42
-0.296928 -0.386737 1.51188 125 156 36
-0.142652 -0.324127 1.56782 154 156 119
0.376018 -0.0358422 1.51449 71 88 46
0.353952 0.120383 1.46167 111 127 52
-0.211272 -0.399588 1.58448 119 140 37
-0.304549 -0.365918 1.45992 128 139 47
0.324783 0.0976326 1.44579 61 83 37
0.330202 0.147251 1.41467 87 121 35
-0.306386 -0.345927 1.50343 123 145 36
-0.257961 -0.377957 1.48522 118 144 34
-0.158674 -0.399511 1.63004 74 92 42
0.278593 0.0950042 1.42066 86 108 59
0.354903 0.166633 1.40478 129 130 36
0.306286 0.108255 1.48211 54 71 27
0.212637 0.191575 1.30029 83 89 45
0.334248 0.138265 1.41188 85 113 36
0.179157 0.199184 1.24321 65 85 36
-0.145549 -0.314659 1.68709 58 77 31
0.0132022 -0.142774 1.59535 108 122 45
-0.247972 -0.368149 1.47291 107 125 43
-0.334964 -0.367202 1.50913 121 150 32
0.183827 -0.213741 1.17722 126 140 42
0.293933 0.0999531 1.42505 86 103 48
-0.293867 -0.387128 1.50577 126 156 32
0.261519 -0.177266 1.15863 123 140 60
0.33516 0.108287 1.47604 84 102 52
0.355383 0.114932 1.46942 117 130 61
0.330266 0.113083 1.45809 75 89 36
0.0611162 -0.0911194 1.58767 138 140 39
-0.329261 -0.384922 1.54861 116 145 29
-0.327045 -0.358199 1.51043 132 158 35
0.308223 0.0938299 1.47104 44 57 29
0.32044 0.108212 1.47174 69 86 44
-0.324359 -0.381328 1.52115 118 147 31
0.146164 -0.401419 1.51166 85 97 31
-0.145096 -0.347428 1.60368 66 86 33
-0.306268 -0.172789 1.44995 103 127 51
0.325204 0.107958 1.46214 62 74 34
-0.335196 -0.236449 1.65178 164 176 114
0.279718 0.096403 1.42657 80 100 51
-0.143587 -0.317022 1.67849 49 67 25
0.324197 0.110132 1.48183 73 93 44
0.358058 0.159925 1.42433 115 120 38
0.161023 0.232415 1.23525 74 92 30
0.206945 0.177344 1.30715 110 111 45
0.315918 0.100179 1.58002 70 83 30
-0.115429 -0.209686 1.32737 100 120 31
0.349056 0.108989 1.49604 94 108 46
-0.263622 -0.227989 1.57222 107 121 34
0.178633 0.208857 1.2485 61 81 28
0.272291 0.0974206 1.43678 83 98 57
0.32818 0.110084 1.46393 89 102 48
0.27654 0.142235 1.34242 67 72 32
0.398634 -0.0274158 1.52551 63 79 42
-0.323872 -0.375956 1.55209 114 145 28
0.316664 0.133002 1.39793 97 114 36
-0.119985 -0.20839 1.33392 106 129 39
0.306117 -0.0517521 1.49351 60 90 40
0.185177 -0.195727 1.18857 133 149 50
0.376909 -0.0470112 1.54095 90 111 46
0.330152 0.143117 1.41525 77 108 32
-0.152084 -0.320271 1.68221 51 70 25
-0.281449 -0.150941 1.45636 93 118 34
0.270556 0.0982126 1.3969 61 79 37
0.263041 0.0921152 1.4129 80 99 54
0.279144 -0.213745 1.17852 122 138 39
0.349543 -0.020527 1.46021 50 70 33
0.35792 0.157118 1.43066 95 98 27
0.29035 -0.173447 1.1941 93 104 28
0.364463 0.15486 1.40443 111 117 29
-0.257495 -0.244206 1.5518 100 125 59
-0.167801 -0.437058 1.59631 132 147 88
-0.290133 0.183286 1.59061 96 106 33
0.0887932 -0.469391 1.60314 107 110 65
0.0560315 -0.12861 1.17895 89 93 32
0.0995473 -0.506718 1.60849 95 112 60
-0.226168 -0.149588 1.50813 90 113 131
0.311651 -0.0182395 1.55421 84 97 54
0.0610258 -0.534376 1.62571 127 130 77
-0.00668089 -0.502843 1.63429 104 124 63
-0.2559 -0.0647036 1.62847 132 143 75
-0.181712 -0.44379 1.57573 92 110 60
-0.155105 -0.29556 1.65704 103 114 54
0.0736971 -0.555095 1.56389 112 115 58
0.014057 -0.23675 1.20829 73 81 42
-0.126035 -0.38472 1.66067 100 120 69
0.0769378 -0.534771 1.56775 113 131 55
0.0919319 -0.324088 1.33677 69 82 36
-0.22508 0.0103548 1.59016 95 105 53
-0.250632 -0.150928 1.66398 104 130 31
-0.265991 -0.0650611 1.65236 97 106 39
0.0562418 -0.460695 1.61661 73 74 30
0.171464 -0.225354 1.17108 95 121 32
0.309783 0.0372763 1.56716 32 50 24
0.128574 -0.438672 1.54147 75 86 28
0.0828065 -0.513251 1.58358 103 121 59
0.0973203 -0.529093 1.51789 151 154 83
0.0531173 -0.538243 1.59412 101 107 59
-0.201986 -0.158319 1.54214 87 104 120
0.119039 0.269335 1.21389 75 90 33
0.0801094 -0.536541 1.51951 125 137 65
0.183675 -0.260585 1.18162 46 65 19
-0.140345 -0.373963 1.60772 36 52 13
0.0691571 -0.5459 1.59962 84 91 40
-0.170888 -0.405957 1.66013 119 128 73
0.10151 -0.495506 1.55581 89 111 46
0.208486 -0.220335 1.17825 77 92 35
-0.171702 -0.41636 1.6599 130 139 86
0.0174091 -0.538331 1.60993 123 131 72
0.356049 -0.00373983 1.48448 48 63 34
0.130832 -0.504421 1.51706 118 137 58
-0.186099 -0.428201 1.6003 95 112 57
-0.220451 -0.40744 1.65928 92 109 55
0.0683977 -0.546969 1.61937 108 111 58
0.0822969 -0.547838 1.58769 100 109 46
-0.208464 -0.501842 1.47603 86 110 52
0.10029 -0.081427 1.27297 116 125 46
0.159869 -0.506987 1.53342 75 87 37
0.089522 -0.0472358 1.28369 112 129 51
-0.280934 -0.105482 1.63452 92 115 35
0.101283 -0.102406 1.37315 79 100 31
0.275311 0.0203063 1.63187 96 104 44
0.192399 0.194927 1.24342 70 74 51
-0.275986 -0.105015 1.70203 75 95 32
0.005596 -0.0660933 1.66868 54 81 30
-0.223011 -0.143918 1.69713 68 88 29
0.10093 -0.538261 1.57326 47 64 20
0.155729 -0.517336 1.56138 106 114 41
0.0601224 -0.518904 1.59359 91 99 48
0.121582 -0.492019 1.5403 90 107 37
0.1435 -0.0877145 1.57413 25 26 18
-0.1684 -0.293331 1.7216 41 55 20
0.121437 -0.473773 1.54012 76 90 28
0.0710868 0.204027 1.21894 79 103 27
-0.187831 -0.00599665 1.62768 101 102 34
0.114377 -0.500944 1.53273 103 110 40
0.183935 0.191731 1.21129 53 71 29
0.121527 -0.534156 1.5509 86 101 44
0.02258 -0.0920942 1.67184 58 82 32
0.0955154 0.366506 1.18705 73 87 26
0.0762624 -0.325022 1.30954 34 50 14
-0.249231 -0.3916 1.63173 101 111 50
-0.145215 -0.331234 1.68004 28 41 13
-0.135682 -0.43781 1.63326 69 83 34
0.281083 0.00947769 1.59416 34 50 23
-0.20198 -0.4069 1.65044 113 119 55
0.303816 0.0177772 1.5718 28 42 19
0.30063 0.0440167 1.56248 30 46 20
-0.144711 -0.303663 1.71663 41 57 18
-0.00103689 -0.459354 1.63598 68 86 34
0.237258 -0.186596 1.14144 88 104 39
0.225984 -0.331168 1.15255 99 111 73
0.228889 0.091089 1.27775 86 112 47
0.190983 -0.353767 1.19949 70 81 47
0.169369 -0.315951 1.16892 84 98 63
0.10202 -0.346745 1.1521 77 95 53
0.32688 -0.0145757 1.48569 46 63 31
0.140449 -0.372173 1.22898 92 104 64
-0.155965 -0.226518 1.18848 84 107 35
0.230337 0.0920692 1.26289 71 97 36
0.190616 -0.213358 1.16854 84 102 44
0.145939 -0.345579 1.16471 62 79 45
0.201226 -0.329834 1.13219 57 74 40
0.285534 -0.188255 1.16245 83 95 31
-0.187463 -0.204081 1.56782 104 132 48
0.358644 -0.0552819 1.46514 116 117 99
0.327929 -0.000597874 1.56941 90 109 54
0.335498 -0.0401718 1.50989 74 92 44
0.0653793 0.234521 1.2484 142 158 69
0.332801 0.101869 1.43057 97 120 48
0.145656 0.126944 1.24634 114 136 53
0.0359947 -0.0937752 1.66592 95 125 55
0.324682 -0.0198395 1.56058 111 128 74
0.393947 -0.0321716 1.54215 102 123 67
-0.162495 -0.318529 1.66413 81 92 62
0.343222 -0.0462209 1.52464 63 80 36
0.356836 0.101882 1.58607 109 121 47
-0.300254 -0.129155 1.57491 99 110 41
0.225112 0.37854 1.71515 200 208 135
0.194779 0.202425 1.26586 105 110 54
0.331878 0.0168337 1.59046 132 134 59
0.329827 0.113554 1.46472 97 108 50
-0.0201365 -0.0678631 1.54493 122 129 88
0.205187 0.108751 1.29753 107 134 41
0.258147 0.136274 1.35648 134 144 71
0.172433 0.113035 1.29183 155 182 79
0.378414 0.107718 1.47587 115 135 64
0.0327643 -0.277424 1.37695 79 96 41
0.228198 0.401177 1.74597 117 137 48
0.308302 0.195022 1.45225 94 114 45
0.465672 0.180179 1.68321 113 138 46
0.351072 0.0776087 1.60466 148 150 67
-0.328882 -0.0755678 1.70414 79 102 32
-0.148341 -0.311516 1.709 86 106 53
0.34478 0.116121 1.44078 90 112 37
0.321313 0.282771 1.66414 112 123 45
0.276336 0.00292169 1.59394 59 76 44
0.4515 0.177221 1.66449 113 138 57
0.466328 0.207209 1.66061 138 147 58
0.37746 -0.0202415 1.56617 59 78 33
0.354834 0.113403 1.46643 122 133 67
0.177414 -0.216813 1.16783 99 124 43
0.410802 -0.077263 1.50244 70 88 48
0.297333 -0.0310023 1.58679 84 95 65
0.369387 -0.0493146 1.55495 91 117 52
0.340372 0.279397 1.72008 108 121 42
0.101892 -0.0935365 1.27022 170 174 89
0.333499 0.148561 1.41014 86 120 36
0.135072 -0.456728 1.5388 104 123 44
0.318135 0.0739164 1.59318 92 112 41
0.102882 -0.511277 1.54527 110 131 62
0.329703 0.265143 1.62713 118 126 49
0.226038 0.137076 1.30273 94 113 49
-0.169287 -0.413611 1.61835 100 122 50
-0.119762 -0.35884 1.6541 60 77 35
0.18944 -0.284076 1.19808 81 107 36
0.339938 0.273522 1.67194 111 121 48
0.249978 0.34853 1.67564 142 159 65
-0.176297 -0.375946 1.63915 63 79 42
0.448604 0.136073 1.58981 109 115 55
-0.159931 -0.370835 1.69405 84 102 54
0.346963 0.170055 1.54342 101 110 47
0.374474 0.100966 1.47867 104 124 52
-0.149365 -0.277102 1.71212 77 98 41
0.111055 -0.507763 1.52813 138 152 73
0.37222 0.129162 1.43281 90 110 38
0.216327 0.390183 1.77255 119 141 56
-0.158942 -0.406771 1.65146 121 140 76
0.140607 -0.445345 1.53594 100 115 34
0.374429 0.0374435 1.62778 118 122 48
0.0345384 -0.18506 1.64234 92 102 78
0.18539 -0.211575 1.17877 144 159 64
0.326802 0.110348 1.4985 77 95 45
0.231473 0.362449 1.70268 134 150 61
0.358703 0.121649 1.4531 123 139 64
0.327396 0.134004 1.39806 117 141 47
0.334459 0.159683 1.54581 85 98 42
-0.270218 0.638133 1.08259 87 104 70
0.120205 -0.101532 1.29781 140 149 68
0.211841 0.390009 1.74591 112 135 45
0.204751 -0.300687 1.19393 94 117 49
0.145521 -0.476446 1.52625 114 130 57
-0.179122 -0.310845 1.71806 56 67 37
0.0610052 -0.0634163 1.28327 128 129 49
0.306128 0.0291958 1.59946 68 92 44
0.0144587 -0.0801505 1.66616 91 120 54
0.329817 0.109409 1.4927 80 98 50
0.0806591 -0.0888959 1.27397 149 158 65
0.337489 0.106005 1.44609 72 94 32
0.0668858 -0.272956 1.35914 111 117 55
0.140795 -0.472252 1.53361 103 119 44
0.321942 0.122547 1.40444 102 123 48
0.0761275 -0.5224 1.56426 67 80 36
0.0176674 -0.512822 1.62824 99 103 53
0.207268 0.420653 1.74495 121 141 54
-0.00150062 -0.126798 1.5963 104 112 61
0.0942463 -0.352673 1.29908 61 78 34
0.168395 -0.185706 1.19115 137 143 47
-0.286601 -0.103035 1.68606 94 119 35
0.431765 0.216984 1.6221 101 122 31
-0.25789 -0.157981 1.69093 96 124 47
0.324005 0.105881 1.45715 55 71 35
0.129512 -0.477807 1.54115 127 141 54
0.0635329 -0.529078 1.61254 124 134 71
-0.142178 -0.380495 1.69141 57 71 36
-0.265581 -0.215018 1.56506 98 123 42
0.226665 0.102397 1.30219 53 70 26
0.241417 0.369835 1.68962 130 147 51
0.131275 -0.493403 1.54797 81 102 37
0.0801826 -0.518155 1.61952 98 108 56
0.214743 0.352053 1.69898 125 139 51
0.360911 0.185432 1.541 123 124 58
-0.293366 -0.147708 1.60391 102 129 32
0.181118 -0.182938 1.17369 131 148 44
0.0538014 -0.265587 1.31917 89 96 44
0.352773 0.124878 1.4555 108 124 53
0.457349 0.187228 1.66042 85 112 33
0.0776167 -0.50499 1.55889 63 80 38
0.338421 0.0521922 1.43401 60 76 39
-0.229671 -0.426159 1.6501 136 154 102
-0.118642 -0.388363 1.68772 57 73 37
0.363674 0.140949 1.49311 79 92 36
-0.148969 -0.305493 1.71644 74 94 43
-0.120097 -0.374347 1.65937 57 75 33
0.093005 -0.337075 1.32715 56 75 30
0.378339 -0.0361802 1.55953 84 105 46
0.293509 -0.240918 1.22602 117 127 40
0.109672 -0.466635 1.54922 70 91 32
0.0938515 -0.483194 1.56646 89 111 49
0.346049 -0.0295018 1.56094 55 71 34
0.00349495 -0.271972 1.34411 61 85 25
0.0129837 -0.272026 1.34263 66 92 29
-0.141491 -0.356172 1.6841 52 66 30
0.317334 0.077079 1.60525 98 111 39
0.0288414 -0.110961 1.57794 119 126 84
-0.00197364 -0.468482 1.63581 77 91 42
0.228305 0.100605 1.29392 61 84 30
-0.158403 -0.34555 1.69035 31 44 18
-0.0810412 -0.0887464 1.65845 132 134 61
0.0775465 -0.520705 1.55389 51 69 21
-0.220616 -0.201997 1.53332 74 95 39
-0.287179 -0.173527 1.46314 95 117 45
0.112357 -0.0717927 1.30278 126 141 60
0.349118 -0.0363008 1.4814 28 43 20
0.354426 -0.0374859 1.48057 50 71 38
0.313737 0.213362 1.46574 102 116 37
-0.201533 -0.189853 1.55267 99 128 44
0.150571 -0.463778 1.51723 80 94 41
-0.187581 -0.282936 1.73086 51 67 28
0.0054266 -0.257897 1.33335 63 89 26
-0.125121 -0.379101 1.66781 45 60 27
0.378711 -0.0406905 1.54492 69 87 39
-0.125235 -0.339823 1.70306 44 57 27
0.35728 -0.0281215 1.55843 72 95 43
-0.145671 -0.295501 1.70377 54 78 28
-0.253771 -0.216052 1.56974 95 122 41
0.16945 -0.166274 1.15819 134 153 48
0.0128492 -0.284097 1.3288 52 72 23
0.0297802 -0.495094 1.63058 74 76 29
0.141669 -0.453779 1.5399 76 91 34
0.291951 -0.305556 1.23587 35 48 18
0.168357 -0.18474 1.17218 111 127 39
0.183718 -0.144028 1.16176 124 129 39
0.0948369 -0.358599 1.30576 30 47 13
-0.080002 -0.266912 1.46314 69 101 26
-0.0107062 0.113045 1.50417 46 61 80
0.209832 -0.321331 1.24381 47 67 14
0.0781552 -0.512696 1.59058 82 95 39
0.268428 0.000442178 1.58795 42 59 27
0.14571 -0.144899 1.15388 108 124 36
0.12133 -0.445839 1.5512 56 72 23
-0.15316 -0.273764 1.70044 51 78 23
0.171788 -0.447933 1.51965 50 66 19
-0.148246 -0.302719 1.72442 56 80 30
-0.296516 -0.150383 1.62733 119 128 35
0.109448 -0.466341 1.55485 51 71 20
0.367959 -0.0262071 1.55261 53 70 26
-0.14741 -0.299864 1.68214 28 44 15
-0.267105 -0.215853 1.55728 88 106 48
-0.289784 -0.147539 1.62103 148 156 44
-0.292586 -0.142163 1.59894 73 96 26
-0.230067 -0.202437 1.54626 80 102 38
-0.257416 -0.142586 1.69248 91 116 35
0.463866 0.205322 1.66351 118 128 39
0.46506 0.200878 1.67437 82 102 30
0.0556862 -0.427078 1.25967 106 115 60
0.112581 -0.479235 1.52389 102 114 42
0.120071 0.153555 1.61954 142 149 69
0.310838 0.173994 1.36787 113 133 62
0.0456772 0.214333 1.24638 87 104 33
0.101877 -0.525231 1.52233 152 156 82
0.301722 0.164471 1.37115 113 121 64
0.0709104 -0.388834 1.1327 124 131 87
0.00476093 -0.150857 1.5683 110 117 65
0.331038 -0.00390554 1.57076 90 109 54
0.0478021 0.258488 1.23005 92 115 35
0.0725329 -0.437322 1.31995 68 92 44
0.145616 -0.412943 1.2037 140 157 103
0.199106 -0.268565 1.17911 74 98 38
-0.0527885 -0.0469622 1.5103 108 115 64
0.197115 -0.329696 1.18933 122 143 84
0.183464 0.0993631 1.30247 115 140 49
0.102758 -0.389253 1.26992 82 104 57
0.141774 -0.394738 1.23386 88 111 57
0.357462 -0.0210509 1.49418 46 63 31
-0.0342866 -0.138503 1.56231 88 94 94
0.0885912 -0.0897435 1.28773 127 135 49
0.140158 -0.452668 1.53718 94 111 31
0.00503223 -0.478569 1.62921 69 76 34
0.0536925 -0.0810475 1.60355 76 83 41
0.335828 0.172489 1.54383 97 107 47
0.334575 -0.0246795 1.58698 34 53 25
0.234235 -0.377814 1.22366 62 77 46
0.247497 -0.36617 1.20681 85 101 64
0.158969 -0.298803 1.12878 69 84 51
0.0969752 -0.370529 1.31256 36 51 18
0.119946 -0.430026 1.29324 67 86 41
-0.217059 -0.117479 1.69457 90 115 32
-0.267535 -0.0694349 1.66181 100 108 57
0.338423 0.136034 1.53353 74 79 38
0.242807 -0.297103 1.22889 43 62 17
0.0945636 -0.348585 1.30044 60 79 33
-0.29458 -0.133842 1.58276 84 105 26
-0.164877 -0.202228 1.56345 68 90 28
0.143346 -0.37858 1.30586 47 63 26
0.196727 -0.294265 1.2656 102 126 32
0.246618 -0.292104 1.21216 38 54 15
-0.332327 -0.0880741 1.62255 81 104 24
0.207031 -0.273547 1.18577 49 66 21
-0.311 -0.113558 1.58325 94 108 29
0.102016 -0.453757 1.54328 58 76 26
-0.146254 -0.0728409 1.49469 92 105 122
0.296334 -0.0138474 1.6066 32 48 21
-0.295208 -0.101877 1.62293 90 112 30
0.110368 -0.0894959 1.05698 98 116 30
0.117673 -0.118611 1.30355 121 130 39
0.0576624 -0.358125 1.24545 31 44 14
0.216377 -0.216706 1.16937 51 66 23
0.143852 -0.132663 1.09588 88 105 27
-0.26803 -0.162255 1.69878 91 111 50
-0.149346 -0.292338 1.7145 54 76 27
-0.00820939 -0.114494 1.67102 80 107 52
0.245909 0.0755974 1.31459 40 57 15
0.232377 0.33112 1.40207 73 87 36
-0.263923 -0.162952 1.51017 110 132 47
-0.337628 -0.179624 1.50538 116 129 39
-0.28129 -0.138922 1.62124 102 113 35
-0.130566 -0.071577 1.53876 126 133 82
-0.305448 -0.185674 1.68098 121 141 78
-0.0608998 0.0166526 1.31136 98 115 45
-0.100712 -0.0625919 1.46538 80 90 37
-0.180391 0.0356589 1.35712 94 105 39
0.18897 0.196608 1.23208 201 212 180
0.266868 0.179593 1.35757 195 198 177
-0.226388 -0.160334 1.66673 91 107 42
0.25944 0.27417 1.41591 86 89 44
0.3596 0.267927 1.6554 99 110 42
0.383503 0.319419 1.47258 103 118 51
0.351793 0.235345 1.61738 118 130 68
-0.274906 -0.163547 1.5807 76 88 40
0.336291 0.240219 1.62435 124 137 68
0.434181 0.206986 1.64724 116 117 47
0.34113 0.257489 1.61668 113 122 55
0.352363 0.134627 1.6176 96 117 48
0.346354 0.305275 1.48528 92 109 41
0.333732 0.351771 1.4691 68 88 29
-0.285758 -0.187211 1.6399 98 111 57
0.405021 0.335998 1.47022 82 91 46
-0.329844 -0.158459 1.67536 93 118 50
-0.194104 -0.12793 1.53554 89 110 41
-0.0472681 0.131651 1.71936 110 115 61
0.412673 0.191666 1.60481 109 119 58
0.449539 0.206978 1.6283 109 112 57
-0.301427 -0.0295303 1.61014 124 130 58
0.300295 0.229348 1.36187 67 83 36
-0.329554 -0.13679 1.62571 78 100 36
-0.274162 -0.0471211 1.64071 90 100 37
0.37815 0.160629 1.60163 100 114 39
0.20227 0.145843 1.2926 70 91 34
0.346211 0.13888 1.55545 78 83 42
-0.187193 0.00921839 1.56952 100 110 37
-0.329802 -0.144437 1.45525 65 85 34
0.19529 0.121688 1.27955 70 90 39
-0.263594 -0.179414 1.66435 78 98 37
-0.265602 -0.0902596 1.65971 75 94 39
0.341893 0.139298 1.55098 74 78 43
-0.0594666 -0.0505433 1.4793 103 110 58
-0.287302 -0.120331 1.61202 108 119 41
0.100889 0.211978 1.22533 64 88 36
-0.306504 -0.0381957 1.63805 105 107 42
0.411823 0.206761 1.64062 131 132 64
-0.276792 -0.151295 1.668 77 98 31
0.2538 0.157277 1.30448 60 78 30
0.482295 0.21292 1.6707 104 113 34
-0.311637 -0.125202 1.62145 79 102 34
-0.290236 -0.216026 1.55801 87 103 41
0.41172 0.258507 1.66406 101 110 43
0.229788 0.106783 1.2741 62 84 37
-0.258579 -0.0366414 1.62711 70 85 30
0.179584 0.162459 1.26972 61 72 42
0.0909939 0.185106 1.22583 59 83 33
-0.276816 -0.111298 1.62308 105 117 41
0.0753016 0.185288 1.24661 68 96 38
-0.172435 -0.354919 1.6206 157 161 128
-0.279979 -0.350952 1.52593 121 145 35
-0.159723 -0.353827 1.60121 96 117 50
-0.32583 -0.32829 1.55482 155 168 115
-0.147082 -0.345751 1.66741 48 62 26
-0.346423 -0.356301 1.50802 120 147 32
-0.144725 -0.353337 1.65981 60 72 34
-0.836014 0.516478 1.31661 125 126 120
-0.175427 -0.35108 1.65808 91 112 45
-0.324253 -0.134634 1.62055 126 150 40
0.271255 0.194613 1.40901 108 121 52
-0.174377 -0.380758 1.65345 107 131 43
-0.0967586 -0.359444 1.65974 44 55 25
-0.135769 -0.362212 1.65067 62 85 29
-0.29688 -0.182485 1.69314 111 131 42
-0.301585 -0.169856 1.70255 110 136 49
-0.323433 -0.341179 1.53376 123 146 40
-0.159621 -0.379663 1.64331 77 98 39
-0.191907 0.0181686 1.57444 119 132 44
-0.338941 -0.133724 1.62771 100 131 38
-0.230934 -0.40542 1.41276 42 58 22
0.0879908 -0.510808 1.63458 36 37 19
0.316003 0.184596 1.53448 67 85 37
-0.0846674 -0.267833 1.46754 98 125 46
-0.285455 -0.177318 1.69508 115 137 37
-0.307895 -0.118723 1.63261 102 126 42
0.0901323 -0.442497 1.56009 142 153 95
-0.301988 -0.173313 1.68737 110 135 43
0.181977 -0.222534 1.16436 97 115 55
-0.114037 -0.285332 1.4337 92 116 40
0.353459 0.237057 1.55338 136 141 38
-0.0862077 -0.404316 1.60276 37 48 14
-0.14 -0.341845 1.64006 63 83 34
-0.316223 -0.345936 1.52172 100 123 41
-0.300021 -0.132076 1.6029 150 154 57
0.0717687 -0.470126 1.64154 41 44 23
-0.125961 -0.480307 1.65425 102 131 49
0.335037 0.211694 1.54851 88 112 36
0.307467 0.172891 1.52772 57 77 28
-0.295671 -0.034839 1.63046 118 123 43
-0.129344 -0.339861 1.66582 35 45 20
-0.300962 -0.140444 1.63189 120 143 37
-0.262768 -0.192987 1.68617 107 127 38
-0.105389 -0.377176 1.69313 28 38 13
0.0159402 -0.110967 1.62091 108 116 59
0.342511 0.177731 1.52258 62 77 34
-0.28071 -0.0445855 1.66335 128 136 59
0.0345386 -0.515667 1.41767 192 198 162
0.141229 -0.378862 1.24924 95 116 57
0.0822432 -0.449131 1.33597 93 126 57
0.0752225 -0.473953 1.35988 78 94 57
0.0511217 -0.463214 1.27555 109 132 64
0.123337 -0.519377 1.48702 123 144 75
0.0771948 -0.436374 1.30245 83 113 53
0.183047 -0.37516 1.17671 85 112 57
0.0496104 -0.504553 1.42187 83 99 52
0.0574577 -0.497557 1.40799 65 81 44
0.129384 -0.505018 1.47977 100 122 60
-0.138496 -0.309853 1.67939 66 85 40
0.214152 -0.309211 1.15617 52 62 38
0.0896682 -0.370076 1.30996 58 80 34
0.146126 -0.363135 1.24919 66 86 37
0.0998995 -0.352498 1.29067 64 88 38
0.100673 -0.342707 1.2907 73 95 46
0.179168 -0.376864 1.18912 71 86 55
0.069044 -0.480352 1.41554 112 136 60
0.0933779 -0.348997 1.30004 43 59 23
0.174262 -0.372781 1.20604 61 74 46
0.0556986 -0.450833 1.27916 133 146 76
0.090731 -0.362768 1.31269 63 82 37
0.199167 -0.309949 1.20164 66 82 37
0.0726086 -0.453674 1.31388 73 98 43
0.0706758 -0.476171 1.41574 105 132 53
0.139485 -0.38879 1.2353 84 107 53
0.174046 -0.393764 1.17235 93 113 64
0.0549565 -0.4922 1.43064 59 78 33
0.0859307 -0.425216 1.28866 71 86 45
0.129869 -0.505436 1.46707 67 83 46
0.0690234 -0.465328 1.42098 54 73 28
0.05515 -0.52933 1.59665 120 130 57
0.0861116 -0.44125 1.33862 45 60 29
0.136383 -0.390086 1.24792 71 85 49
0.0726303 -0.448123 1.30946 74 101 48
0.181134 -0.313066 1.20865 73 100 29
0.0735668 -0.440653 1.307 55 81 34
0.146004 -0.373295 1.24525 49 60 30
0.0844858 -0.369603 1.32079 33 48 17
-0.136439 -0.327975 1.67943 43 61 21
0.0860864 -0.438264 1.32858 42 59 25
0.0707822 -0.435802 1.27622 109 116 65
-0.106092 -0.420634 1.5115 97 116 61
0.0805104 -0.514461 1.53662 104 115 57
0.0303812 -0.0466061 1.32207 122 128 54
0.122811 -0.0869416 1.27202 125 134 69
0.157258 -0.46738 1.51299 98 112 63
