ply
format ascii 1.0
comment Created by Open3D
element vertex 1295
property double x
property double y
property double z
property uchar red
property uchar green
property uchar blue
end_header
-0.260653 0.144745 1.78695 164 54 29
-0.114531 0.24587 1.49031 154 63 34
0.131516 0.160153 1.69013 141 29 25
-0.242151 0.44836 1.78119 147 40 22
-0.353374 0.124411 1.63086 169 53 28
-0.0811172 0.495196 1.66703 138 54 20
-0.0645061 0.29983 1.54859 152 67 38
-0.262232 0.357823 1.82234 152 48 23
-0.141578 0.273106 1.5425 141 39 24
-0.115562 0.356333 1.59415 127 40 20
-0.216333 0.345122 1.63897 126 34 19
-0.0626989 0.54572 1.74457 128 39 21
-0.256389 0.304349 1.71627 137 37 21
-0.259974 0.325445 1.76271 150 49 21
-0.270177 0.280706 1.79202 155 51 22
-0.267218 0.309272 1.71644 144 42 20
-0.149487 0.278486 1.54632 140 39 21
-0.153251 0.113036 1.89717 185 110 104
-0.0512751 0.0878248 1.83742 130 73 43
0.109574 0.150432 1.79971 145 78 62
-0.0961812 0.564517 1.71471 131 75 52
-0.0186511 0.272759 1.67203 152 54 29
-0.0767614 0.249567 1.48308 148 36 25
-0.271731 0.162471 1.68572 153 41 29
-0.175667 0.245559 1.5369 159 48 28
-0.169791 0.509355 1.771 154 52 27
-0.078513 0.307387 1.53485 140 34 20
-0.290987 0.182396 1.74927 153 37 24
-0.08803 0.364521 1.62015 136 39 22
-0.170366 0.351662 1.64899 153 55 26
0.0496879 0.115513 1.87756 140 83 66
-0.216636 0.0315894 1.85738 166 51 32
-0.271772 0.198711 1.6337 151 72 41
-0.268948 0.297228 1.72391 127 49 26
0.0650904 0.0999516 1.87108 113 28 23
-0.287425 0.0878734 1.76487 163 47 24
-0.246085 0.208999 1.6472 145 45 29
-0.212003 0.241526 1.68384 162 48 24
-0.191886 0.20072 1.53414 156 49 29
-0.226804 0.104882 1.82383 155 38 18
-0.228986 0.25574 1.64462 131 40 22
0.142567 0.1908 1.73447 119 22 15
-0.281144 0.116395 1.76511 130 28 16
-0.216939 0.188045 1.75043 163 46 28
-0.216497 0.199729 1.73733 161 46 25
-0.0831476 0.276366 1.54238 104 15 9
0.0952099 0.120922 1.84635 111 23 19
0.277509 0.251799 1.78629 111 18 13
0.0952036 0.130979 1.77884 107 16 15
0.0362892 0.0348302 1.8337 124 27 20
0.0762034 0.119724 1.85711 144 84 76
-0.0716975 0.308189 1.5495 93 30 25
-0.064729 0.298945 1.55933 61 25 13
0.14376 0.169499 1.77452 121 18 13
-0.179389 0.319458 1.68925 147 37 20
0.0184955 0.102906 1.89387 107 16 13
-0.0135161 0.0666512 1.88575 118 25 18
-0.251748 0.188261 1.72122 146 36 19
-0.0587207 0.294444 1.53575 91 12 7
-0.253331 0.21428 1.66797 116 27 13
-0.0808797 -0.0478166 1.7451 122 18 17
-0.0407658 0.0156769 1.7723 122 18 15
0.163085 0.202439 1.77228 150 36 35
-2.07915e-05 0.241737 1.66075 108 14 12
-0.0320515 0.121954 1.72531 90 52 39
-0.157329 0.221981 1.58379 132 41 36
-0.0359201 0.227745 1.51522 116 32 22
-0.0577964 0.138033 1.72954 104 52 39
-0.0996298 0.248499 1.49659 109 31 27
-0.0335044 0.2402 1.51832 104 25 21
-0.0416854 0.250009 1.49198 105 22 18
-0.0474904 0.255972 1.47192 94 20 17
0.12744 0.184756 1.61157 94 25 18
-0.12561 0.254916 1.53229 102 13 15
-0.163394 0.230367 1.61517 109 15 15
0.00398173 -0.0947704 1.26986 76 41 21
0.0966931 0.207158 1.67197 97 18 13
-0.0269042 0.230461 1.50066 123 37 24
-0.167959 0.289229 1.60796 115 31 20
-0.0304346 0.217129 1.49976 98 53 20
0.238524 0.0862261 1.64921 171 73 34
-0.255528 0.242447 1.65698 204 117 97
-0.26515 0.22461 1.64831 206 85 58
-0.170454 0.121891 1.89271 132 60 46
-0.263521 0.228696 1.68481 166 78 66
0.333769 0.199697 1.40336 112 59 17
-0.0206092 0.0511424 1.69127 110 43 24
-0.270419 0.211703 1.72002 147 66 45
-0.267937 0.157775 1.77978 129 24 21
0.189597 0.149221 1.38716 136 35 17
0.332458 0.125879 1.4483 86 51 11
-0.27668 0.185379 1.73697 132 21 14
-0.0496698 0.264862 1.55476 139 40 21
-0.259116 0.152791 1.78782 124 16 16
-0.244837 0.180491 1.69323 134 19 12
-0.259973 0.228639 1.68388 171 75 51
-0.0346812 0.162095 1.83129 194 79 50
0.111652 0.17733 1.71533 135 31 18
0.0281926 0.262059 1.91696 187 69 33
0.0559089 0.221981 1.92151 202 79 37
-0.00479688 0.19412 1.94752 167 96 42
0.0255487 0.0617284 1.86326 196 76 49
-0.194657 0.0355236 1.85192 172 69 50
-0.0199068 0.183139 1.94328 175 100 45
0.152463 0.107463 1.75497 174 53 26
-0.0583544 0.202557 1.94466 157 83 34
0.041051 0.278368 1.65012 166 55 28
0.139599 0.153821 1.83897 160 47 17
0.129687 0.197501 1.70217 144 44 18
-0.097623 0.223051 1.95305 183 88 42
0.126281 0.138583 1.74738 179 54 24
-0.0132259 -0.090644 1.76922 145 27 17
0.108925 0.0725418 1.84593 174 49 21
0.0959802 0.242995 1.69785 143 38 17
-0.0707562 0.170222 1.88363 182 54 25
-0.302386 0.246584 1.63416 154 31 16
0.147445 0.160851 1.6639 140 44 19
-0.268301 0.226685 1.6474 206 85 58
0.0184655 -0.0257298 1.6699 147 64 34
-0.0576116 0.189884 1.51968 180 102 100
-0.0277998 0.210587 1.93977 169 98 44
-0.0344596 0.224515 1.94301 137 70 27
-0.0973338 0.120563 1.8723 214 93 66
-0.0262334 0.201779 1.95539 168 97 43
-0.240448 0.122952 1.83954 135 32 25
0.0737605 0.196753 1.54908 183 84 61
-0.0127897 0.207722 1.95516 168 92 40
-0.268262 0.128794 1.76881 158 31 22
-0.0579347 0.422931 1.68991 152 36 13
0.0530804 0.235276 1.76188 150 34 19
-0.142103 0.415204 1.9684 180 64 25
0.0256223 0.184845 1.77669 171 57 31
0.0121089 0.208838 1.76623 173 57 32
-0.214573 0.158965 1.88691 188 85 50
-0.287422 0.148488 1.82948 121 27 19
-0.271485 0.157276 1.81053 120 16 15
0.053166 0.183355 1.87181 169 50 20
-0.0132975 0.0824762 1.89661 210 82 37
0.0198564 0.212161 1.77268 159 40 20
-0.274488 0.163332 1.79695 157 28 22
-0.0454475 0.0971977 1.88199 188 64 28
-0.0952878 0.0712747 1.90083 192 76 37
0.0883898 0.227139 1.89381 169 51 21
-0.111199 0.253855 1.51118 155 34 17
-0.32455 0.239056 1.68315 149 25 15
0.0834241 0.364394 1.70216 138 64 29
-0.272705 0.215286 1.64995 155 32 17
-0.229432 0.261039 1.60047 233 130 99
0.0895239 0.231487 1.82038 187 64 23
-0.107853 0.240153 1.81972 216 96 61
0.0489964 0.284786 1.66916 166 47 23
0.113712 0.214954 1.61363 175 98 56
0.0356999 0.201353 1.76264 189 62 29
-0.0225809 0.231878 1.7618 203 79 45
-0.0395271 0.15803 1.87557 210 77 34
0.109079 0.0756303 1.82142 202 71 29
-0.2471 0.134307 1.81958 156 29 22
-0.108388 0.108482 1.90278 217 100 56
-0.257662 0.148892 1.86039 155 30 26
0.107414 0.0691056 1.82843 203 69 31
-0.298834 0.18704 1.75965 168 35 20
-0.139566 0.0627627 1.87831 165 45 29
0.125048 0.111765 1.85091 201 74 29
0.00300977 0.177237 1.84603 204 71 28
0.148755 0.111515 1.78887 191 58 23
-0.266891 0.110571 1.78543 194 95 74
0.0444996 0.0961256 1.86422 154 49 53
0.0695329 0.248289 1.57891 171 83 59
-0.23084 0.0549084 1.82321 184 94 68
0.0136765 0.234957 1.50434 144 69 40
-0.230445 0.117499 1.83809 141 39 35
0.110236 0.237529 1.61394 158 70 46
0.0563843 -0.0678847 1.302 126 69 26
-0.238695 0.129324 1.8399 133 35 26
0.147072 0.173412 1.70872 131 32 26
0.0917099 0.109247 1.82578 144 22 21
-0.142875 0.101874 1.88517 94 13 12
-0.277878 0.235639 1.64276 161 43 29
-0.297663 0.242545 1.69305 131 49 35
-0.187791 0.258118 1.55556 184 93 64
0.0971663 0.185151 1.78964 166 45 18
-0.318923 0.303053 1.64581 159 69 45
-0.278727 0.197158 1.75997 194 110 86
-0.242205 0.109432 1.86242 163 67 45
-0.281709 0.19825 1.76801 145 77 56
-0.0203848 0.185491 1.86812 207 74 31
-0.273563 0.226171 1.70556 135 67 48
-0.252052 0.24098 1.62374 159 37 22
-0.291537 0.256272 1.68872 116 55 37
-0.209365 0.0658289 1.84036 116 23 18
-0.120852 0.246279 1.88002 182 59 25
-0.0383486 0.203674 1.82471 181 62 32
-0.309176 0.222808 1.69787 149 27 16
-0.304876 0.220995 1.73042 143 26 19
0.126751 0.105891 1.80548 161 40 19
0.165479 0.0453946 1.79434 178 58 31
-0.360685 0.237727 1.81675 120 23 17
0.103307 0.227086 1.67658 159 48 21
0.121002 0.248598 1.69996 138 54 20
-0.259371 0.210538 1.65497 144 32 18
-0.288899 0.222712 1.69642 150 27 19
-0.29591 0.262797 1.63198 143 26 16
-0.209574 0.255859 1.57708 219 120 89
-0.194162 0.260528 1.56042 208 111 78
-0.176175 0.0387145 1.86914 207 107 84
-0.0526183 0.178961 1.83194 213 93 58
-0.0607372 0.178536 1.83745 216 92 56
0.11035 0.154053 1.80048 195 63 25
-0.105206 0.155307 1.87508 215 95 61
0.112518 0.0844844 1.83302 198 66 28
-0.0607482 0.237585 1.81983 196 64 25
-0.241569 0.126218 1.80584 161 27 18
-0.213824 0.21722 1.56177 186 51 21
-0.283695 0.169211 1.65728 198 111 92
0.114484 0.364033 1.71644 158 76 36
-0.215646 0.1369 1.858 150 82 71
-0.0915424 0.452814 1.6389 152 66 33
0.0933283 0.371689 1.71412 143 56 26
-0.2081 0.247178 1.55595 178 84 50
-0.0203834 0.339202 1.59483 135 35 20
-0.158571 0.248772 1.51528 164 50 26
-0.216691 0.563569 1.88886 155 60 28
-0.185238 0.475356 1.73609 151 45 21
-0.186394 0.536943 1.74826 148 71 41
-0.260013 0.165632 1.80325 184 105 92
-0.233472 0.199451 1.56484 193 102 84
-0.0455876 0.0327442 1.82626 127 71 48
-0.0662289 0.0844164 1.8811 129 68 47
0.146276 0.0888818 1.63916 203 115 95
-0.0154477 0.0475661 1.34038 162 89 54
0.144586 0.100997 1.69005 206 115 97
-0.155963 0.238318 1.58428 168 95 63
0.000175757 -0.0765034 1.31508 113 62 33
-0.0680456 0.267132 1.48766 158 38 21
-0.205219 0.347587 1.64137 172 88 51
-0.0829308 0.407719 1.47236 159 76 46
0.0561167 0.393458 1.66242 134 39 19
0.00989536 -0.108791 1.26262 66 29 13
0.102286 0.376302 1.75105 147 67 30
-0.169607 0.353642 1.61677 160 65 35
-0.0495124 0.0625222 1.41156 131 19 18
0.247237 0.544594 1.70356 149 89 39
-0.19602 0.301218 1.61544 163 69 35
-0.201914 0.4735 1.7391 162 68 34
0.134395 0.44355 1.88856 185 78 42
0.149155 -0.176862 1.19004 174 104 52
0.00995472 0.234498 1.53953 179 49 25
-0.0228945 0.269998 1.7707 183 54 22
0.0756382 0.059074 1.84174 212 94 58
0.144969 0.432728 1.88697 190 80 43
0.049467 0.231342 1.92038 219 94 50
0.1772 0.0857041 1.75838 181 57 31
-0.0784115 0.191098 1.87119 204 73 31
0.0937968 0.412231 1.75346 156 64 25
0.114309 0.222143 1.64846 157 59 30
-0.0165826 0.218685 1.87497 192 66 25
0.193565 0.117826 1.74762 161 41 17
0.105911 0.0103973 1.87197 196 63 28
0.0909695 0.157222 1.86576 188 62 24
0.0759834 0.278998 1.8917 186 60 22
-0.268398 0.160586 1.79173 148 25 17
0.0427372 0.361431 1.65233 152 78 39
0.17943 0.154273 1.65758 162 80 40
-0.240957 0.154812 1.81579 119 71 48
0.0260414 -0.00369929 1.69624 162 96 72
-0.0557137 0.269128 1.57177 154 52 29
-0.274468 0.226296 1.67606 180 41 20
-0.060901 0.282503 1.55856 136 40 18
0.111319 0.196296 1.47739 124 28 16
0.127248 0.170762 1.78568 156 66 55
-0.245716 0.227233 1.60156 167 56 28
-0.0102397 0.104454 1.89545 128 63 57
-0.273553 0.316787 1.74776 121 38 20
-0.00409624 0.105855 1.90235 105 47 43
-0.0828562 0.283389 1.57638 110 63 43
-0.0389992 0.226769 1.53292 153 85 40
-0.165749 0.09732 1.85438 163 62 44
-0.0335842 0.218895 1.52494 150 77 42
-0.190883 0.554456 1.77882 110 63 43
-0.0570147 0.242169 1.49915 137 39 26
-0.0507051 0.227155 1.49996 116 48 29
-0.030541 0.202983 1.51413 149 81 42
0.0427095 0.258581 1.55865 129 26 21
-0.0715351 0.28001 1.57285 114 59 38
-0.152903 0.260913 1.63464 132 36 24
-0.0910772 0.0499071 1.89871 172 73 44
-0.235531 0.222219 1.77053 128 27 15
-0.319593 0.150112 1.68075 151 41 26
-0.0681595 0.103159 1.91012 151 63 53
-0.181407 0.123439 1.88963 141 75 59
-0.0288296 0.0430775 1.69826 103 55 32
-0.240218 0.212787 1.59472 162 52 29
0.116552 0.172724 1.72735 162 61 33
-0.239438 0.184801 1.57389 174 75 44
0.131804 0.152993 1.76981 171 77 39
-0.0411365 0.246926 1.52562 152 41 22
0.0428365 0.00784046 1.69455 82 40 18
-0.16015 0.217789 1.51171 173 78 50
-0.0364327 0.244295 1.5261 143 40 23
-0.0257626 0.0691499 1.8742 126 16 15
0.26012 0.0938761 1.38298 103 52 23
-0.118524 0.115898 1.91016 128 69 51
0.031862 -0.0259941 1.64884 140 64 38
-0.117352 0.121196 1.92852 137 72 54
-0.274665 0.21974 1.71189 187 86 66
-0.0983266 0.107909 1.92366 128 28 26
-0.268595 0.198859 1.73037 145 33 29
-0.19069 0.212331 1.53294 181 75 49
0.155066 0.128945 1.72489 169 73 35
0.108829 0.166989 1.757 168 65 34
0.0525623 0.238395 1.73709 158 52 30
-0.269336 0.206295 1.72241 154 52 40
-0.15797 0.105092 1.66309 124 16 14
0.121546 -0.00910183 1.68958 98 57 25
-0.00840389 0.284798 1.71852 150 50 27
0.0250146 -0.0835271 1.27373 94 48 12
-0.0736782 0.287989 1.56971 130 75 54
0.113358 0.20786 1.68672 131 78 62
-0.275434 0.272838 1.77964 130 43 24
-0.256296 0.310519 1.72263 120 39 22
-0.0723453 0.291055 1.58062 101 60 42
-0.258115 0.381285 1.78705 115 29 14
-0.260955 0.201008 1.62121 115 25 16
-0.140066 0.170432 1.8184 146 50 28
-0.106077 0.163422 1.85202 160 53 37
-0.0634302 0.235592 1.50003 135 41 31
-0.144832 0.209462 1.77016 142 42 26
-0.0634555 0.058879 1.87091 97 13 11
-0.00446936 0.0911383 1.88716 94 13 12
-0.0663156 0.0413487 1.9262 141 83 59
-0.206807 0.347604 1.65162 182 103 62
-0.193656 0.262053 1.56687 176 69 37
-0.288256 0.128746 1.8245 149 30 22
-0.187844 0.531785 1.76202 159 62 30
-0.112171 0.358915 1.5981 155 54 26
-0.285935 0.181449 1.76097 161 42 22
-0.0351638 0.509725 1.64236 149 40 20
0.0983509 0.398311 1.79016 149 61 25
-0.181111 0.362419 1.66753 162 68 32
-0.207426 0.308573 1.63465 171 83 45
-0.209951 0.249661 1.5683 180 83 48
-0.190893 0.371343 1.67193 162 74 36
0.118848 0.124574 1.73643 155 38 28
0.118789 0.142463 1.80628 155 41 31
0.119532 0.111794 1.75186 158 46 34
0.0841133 0.133108 1.84788 129 59 49
-0.117282 0.170696 1.83314 158 49 29
-0.137734 0.179454 1.81725 160 47 29
0.301107 0.245702 1.70454 149 51 26
-0.206166 0.2127 1.54411 153 50 31
0.370953 0.300566 1.712 146 51 23
-0.0943468 0.289496 1.54558 130 29 21
-0.0719426 0.194185 1.72682 86 47 30
-0.192279 0.194047 1.76334 149 42 26
-0.226341 0.25168 1.62068 154 53 33
-0.187306 0.308282 1.68917 134 32 17
-0.169984 0.22985 1.75234 147 42 23
0.134355 0.188858 1.7539 79 26 18
-0.265197 0.210249 1.65421 145 49 27
0.143188 0.175856 1.76354 110 15 11
-0.210344 0.18773 1.86327 147 38 18
-0.0389466 0.0151764 1.73619 101 16 11
-0.276511 0.194077 1.65066 159 79 44
-0.263034 0.201941 1.70102 139 38 20
-0.217852 0.261537 1.70691 123 27 15
-0.287275 0.146172 1.68147 140 43 24
-0.188068 0.0688353 1.86442 160 42 16
-0.183571 0.311052 1.69064 137 34 19
-0.191488 0.193332 1.91262 161 46 19
0.00820903 0.2812 1.55692 159 76 46
0.129674 0.206974 1.71118 110 46 34
-0.102722 0.14413 1.85281 167 57 34
-0.226676 0.234105 1.66901 158 49 29
-0.161086 0.201344 1.78405 148 38 23
-0.200837 0.283116 1.63698 155 48 30
-0.217698 0.0689648 1.84955 146 35 18
0.0411796 0.00699362 1.69639 171 89 52
-0.157657 0.236023 1.50961 186 107 100
0.100055 0.381241 1.73677 166 88 42
0.0898994 0.212723 1.58153 189 94 62
-0.165623 0.037777 1.87436 208 114 88
-0.169777 0.224739 1.52039 162 88 87
-0.278282 0.255151 1.67919 155 86 47
0.130243 0.143597 1.73 177 57 32
0.108725 0.477477 1.89409 188 85 50
-0.275224 0.160662 1.78451 168 41 34
0.15503 0.136057 1.70997 165 47 21
0.103092 0.378024 1.74022 171 90 45
0.180657 -0.128515 1.1557 179 97 50
-0.096249 0.17131 1.84335 216 92 58
-0.0164288 0.187861 1.94792 171 100 46
-0.26741 0.178026 1.66992 173 38 19
-0.0307 0.194272 1.95054 170 99 45
-0.102131 0.201708 1.8988 206 78 33
-0.156784 0.142635 1.87522 214 97 64
-0.170367 0.170625 1.86737 219 91 62
0.0361277 0.0466304 1.91015 207 81 40
-0.253113 0.138797 1.82858 155 27 24
-0.112607 0.305094 1.90249 201 74 29
0.151866 0.13345 1.82294 180 51 19
0.122827 0.1635 1.80285 166 71 65
-0.00877748 0.104855 1.89767 185 108 92
-0.14209 0.109371 1.88309 139 53 38
0.140432 0.18022 1.73876 141 34 24
-0.0498093 0.10704 1.90159 176 80 66
-0.150734 0.244785 1.51627 194 69 49
-0.18206 0.0275552 1.61684 159 88 46
-0.0534264 0.187293 1.73484 124 63 45
0.147098 0.12565 1.72872 192 75 57
-0.149028 0.104877 1.9011 123 17 19
-0.060129 0.239073 1.49842 189 76 46
-0.172963 0.108391 1.89399 177 39 37
-0.178756 0.0306942 1.61304 156 92 44
-0.102229 0.108472 1.91114 169 35 34
0.141673 0.195273 1.73925 133 37 25
-0.162922 0.122903 1.87877 200 108 87
-0.174913 0.277069 1.55438 218 129 95
-0.0337849 0.14079 1.54943 190 103 94
-0.295854 0.145356 1.87789 211 106 85
0.141526 0.139801 1.72449 172 52 27
-0.272728 0.160071 1.78447 165 34 26
-0.347295 0.223859 1.73791 166 36 20
-0.0403337 0.331158 1.60002 193 89 54
-0.186887 0.0420724 1.86304 200 104 80
0.0668444 0.274955 1.6045 181 102 59
-0.357095 0.139945 1.82763 202 108 82
0.147794 0.152501 1.73098 166 40 18
0.1064 0.068287 1.84901 198 64 26
0.140843 0.191519 1.63981 165 67 32
0.0985722 0.399917 1.74007 160 71 31
0.0899216 0.0962206 1.83785 203 70 29
0.0734037 0.0788123 1.85585 200 66 28
0.127278 0.19682 1.70815 161 41 16
-0.133654 0.133912 1.89293 211 84 43
0.110216 0.279884 1.66089 160 86 39
0.011397 0.263293 1.54701 192 95 63
-0.177056 0.269695 1.55721 177 47 34
-0.123942 0.264875 1.55334 188 51 35
-0.277404 0.219119 1.5877 197 70 38
-0.0822122 0.252225 1.49615 184 64 48
-0.139422 0.113866 1.87199 123 59 49
-0.146734 0.116067 1.8572 119 62 43
-0.0465891 0.273048 1.55081 188 64 40
-0.221594 0.236075 1.56776 190 49 32
-0.228357 0.228162 1.57514 187 49 36
-0.205373 0.261948 1.57775 189 52 33
0.129498 0.170268 1.7713 177 46 38
0.150303 0.170059 1.76585 185 51 40
-0.0437343 0.260051 1.52929 182 61 42
-0.0578421 0.0991746 1.89303 169 24 29
-0.271966 0.188355 1.62748 205 83 59
-0.0271363 0.0770975 1.80276 179 40 35
0.103596 0.137803 1.8424 179 93 80
0.0994262 0.131787 1.75176 173 38 32
-0.227968 0.222277 1.55481 185 52 37
-0.166931 0.107806 1.9027 165 35 35
-0.0686242 0.0773255 1.8777 170 27 29
-0.25608 0.167088 1.71391 190 68 45
-0.276464 0.17739 1.65364 193 67 44
-0.187285 0.138608 1.90125 199 85 51
0.148191 0.202531 1.71072 174 46 35
-0.25836 0.203677 1.5641 182 55 38
0.15059 0.180321 1.73312 177 46 36
-0.188698 0.025575 1.5995 136 68 29
-0.209935 0.122108 1.84969 206 120 97
-0.118611 0.239311 1.51781 181 64 46
-0.235605 0.257086 1.6164 217 127 92
-0.229534 0.141368 1.85304 145 69 56
-0.19212 0.0290683 1.60929 134 52 28
-0.0157895 0.272688 1.53751 150 50 27
-0.2294 0.117922 1.8417 141 39 35
-0.196455 0.0742227 1.91201 188 98 74
-0.282699 0.184673 1.65553 175 66 37
-0.288313 0.159532 1.70786 186 93 59
-0.291208 0.176177 1.60815 175 66 37
-0.0107184 0.365747 1.46831 134 71 27
-0.0586893 0.240326 1.50808 160 62 35
0.0227451 0.333767 1.67255 150 49 29
-0.0284747 0.289119 1.57328 147 47 24
-0.254232 0.305801 1.71931 164 64 32
-0.185387 0.234485 1.51401 151 35 22
0.220899 0.529581 1.69684 135 70 28
-0.226835 0.20645 1.47718 153 36 19
0.310056 0.578912 1.75075 133 69 21
-0.201815 0.251328 1.57779 219 120 89
-0.163666 0.260836 1.55175 200 75 43
-0.187789 0.0681229 1.85605 162 36 24
-0.183157 0.0402132 1.86061 197 92 62
-0.214956 0.0488536 1.83536 204 110 82
-0.19205 0.207375 1.61075 194 56 27
0.181183 -0.0230235 1.55216 188 55 22
-0.0222414 0.0465296 1.68794 131 52 37
-0.0263768 0.199529 1.58221 191 113 109
0.00182573 0.249321 1.57262 118 14 15
-0.00832701 0.252929 1.47809 103 25 21
-0.0172385 0.241362 1.51222 117 26 23
-0.0468879 0.309491 1.51385 117 24 17
0.0567518 0.212263 1.54056 111 31 22
-0.0915143 0.314167 1.58649 113 24 16
-0.184919 0.340053 1.63824 133 53 30
-0.0769726 0.249535 1.51168 94 10 10
-0.0287588 0.226278 1.49694 100 44 17
-0.0186346 0.248566 1.48522 96 15 11
0.0309533 0.228939 1.50717 110 23 16
-0.0808579 0.206912 1.62808 105 11 11
0.119757 0.179167 1.58158 147 81 69
0.287756 0.267292 1.35592 65 33 18
-0.130308 -0.142143 1.23263 76 45 25
0.00876974 -0.143719 1.27252 33 16 9
-0.00608254 0.0086102 1.67051 176 98 62
-0.0447928 0.0324672 1.88762 217 116 88
-0.252441 0.26782 1.64862 190 112 74
-0.24914 0.241152 1.62144 210 76 47
-0.25182 0.255021 1.65912 197 103 75
-0.152871 0.255337 1.54954 208 78 46
-0.27258 0.228985 1.69339 143 67 43
-0.217674 0.232443 1.57208 196 58 29
-0.280104 0.16174 1.79443 158 30 21
-0.259899 0.214117 1.65625 185 49 25
-0.18938 0.245439 1.5395 189 54 24
-0.0488317 0.20913 1.51784 107 64 29
-0.0320799 0.12205 1.72491 90 52 39
-0.123866 0.258092 1.57019 116 16 16
-0.152507 0.273388 1.55234 110 19 18
-0.0611692 0.265387 1.44563 118 39 34
-0.0399867 0.231678 1.50606 115 33 22
-0.0344093 0.206176 1.48993 112 66 30
0.0788955 0.222016 1.541 92 17 12
-0.05342 0.23038 1.51405 121 37 27
-0.162202 0.228938 1.51102 143 63 54
-0.0831583 0.252828 1.51519 103 11 12
-0.259915 0.078101 1.78874 197 117 92
-0.237734 0.0686153 1.82996 194 108 81
-0.151139 0.240578 1.49521 154 42 28
-0.183664 0.354087 1.62914 151 51 25
-0.175046 0.265313 1.68186 168 57 38
-0.211033 0.105062 1.86097 127 19 19
-0.0846492 0.365478 1.59112 140 45 25
-0.0345224 0.0578735 1.7505 136 18 18
0.157 -0.0193965 1.24237 73 39 27
0.277238 0.610493 1.86624 128 65 21
-0.251769 0.234068 1.69698 172 69 34
-0.23537 0.124269 1.84003 129 27 23
0.0248287 0.25224 1.55708 175 85 61
-0.237568 0.0789862 1.84795 190 94 70
-0.0185386 -0.161381 1.26386 110 63 35
-0.255438 0.0687588 1.78822 194 99 79
-0.284581 0.180092 1.5995 177 69 41
-0.110721 0.304716 1.5656 152 36 23
-0.184034 0.449682 1.70101 150 70 47
-0.0229176 -0.159713 1.26601 110 65 36
-0.149146 0.449214 1.65646 157 71 48
-0.196412 0.255417 1.55786 157 40 23
-0.04682 0.260299 1.55289 169 73 48
-0.153796 0.266254 1.55671 150 33 23
-0.0771326 0.457795 1.64886 147 74 41
-0.0676495 0.194863 1.72017 112 64 41
-0.232096 0.284679 1.76203 171 63 34
-0.175019 0.245352 1.60489 161 55 33
-0.119871 0.249027 1.50042 150 38 26
-0.278746 0.170307 1.62308 177 69 41
-0.218141 0.226747 1.62492 169 60 40
0.142325 0.178074 1.77327 135 26 23
-0.0208958 0.301862 1.60518 146 43 26
-0.275545 0.168048 1.69215 182 76 54
0.19529 0.530486 1.71742 140 82 36
-0.178151 0.314414 1.63503 140 38 23
0.0789522 0.284514 1.67345 177 78 57
0.042516 0.284295 1.643 171 76 54
-0.0215428 0.363578 1.59756 142 55 28
0.115341 0.102237 1.67575 146 35 28
-0.229448 0.365358 1.74892 161 73 37
-0.0630984 0.263724 1.5228 134 34 19
-0.26586 0.154659 1.76835 140 28 24
-0.0424091 0.255509 1.50949 129 32 16
0.0489603 0.396715 1.65022 135 43 22
0.0663963 0.495817 1.76259 133 50 18
-0.243499 0.0872454 1.72647 131 23 20
0.0109631 0.331045 1.56233 136 46 20
0.106677 0.135173 1.80639 142 27 22
-0.0126792 0.210728 1.42653 132 32 16
0.148815 0.131999 1.71259 175 78 59
0.137983 0.22055 1.71031 117 56 35
-0.111482 0.342032 1.56294 139 38 18
-0.116247 0.294103 1.64115 156 45 25
-0.0480208 0.352972 1.5791 134 37 20
0.0833146 0.480652 1.74819 132 36 20
-0.227501 0.241161 1.5691 148 31 22
-0.183914 0.282315 1.76991 161 44 24
-0.0480309 0.336743 1.57229 150 66 32
-0.0609037 0.228763 1.48479 142 50 29
-0.261711 0.325286 1.75554 181 93 55
-0.0963555 0.277973 1.63185 149 49 33
-0.278514 0.187795 1.61713 142 35 25
-0.245819 0.329016 1.7617 154 54 30
-0.275368 0.302027 1.74379 170 76 38
-0.0812235 0.503692 1.68335 141 56 27
-0.209384 0.230762 1.57473 141 30 21
0.161581 0.179761 1.76041 131 24 18
-0.132684 0.557212 1.76692 128 33 15
-0.228879 0.346278 1.66935 136 40 15
-0.250913 0.25422 1.41434 124 33 12
-0.269401 0.309675 1.733 138 43 15
-0.240253 0.364282 1.75689 137 38 17
-0.20528 0.419983 1.82803 141 38 21
-0.256559 0.280856 1.79289 149 47 24
-0.0497673 0.632192 1.8108 125 40 19
-0.031811 0.0892576 1.75713 88 51 43
-0.225064 0.122923 1.7013 145 24 16
-0.235369 0.255218 1.61689 156 72 48
-0.149979 0.139382 1.88561 204 106 81
-0.330165 0.278014 1.75874 150 70 45
-0.230862 0.258432 1.59632 168 61 41
-0.30005 0.199613 1.80241 141 32 27
-0.0166865 0.243036 1.52394 138 22 9
-0.269786 0.239937 1.65751 139 27 15
-0.260621 0.203302 1.73794 164 96 73
-0.0364724 0.239897 1.51211 166 57 36
-0.0545998 0.251171 1.54378 154 80 31
-0.274872 0.211095 1.64657 159 36 21
0.144276 0.181154 1.43601 158 65 32
-0.047304 0.0273011 1.68007 119 18 10
-0.0749408 0.616415 1.77173 124 73 54
-0.109184 0.564612 1.71742 118 68 45
-0.14319 0.0267642 1.87276 183 93 69
-0.179279 0.260867 1.58471 135 31 22
-0.142053 0.255194 1.59485 146 43 28
-0.242095 0.328805 1.81314 159 51 23
-0.0706773 0.322686 1.70988 136 27 20
-0.248099 0.211871 1.56189 131 30 22
-0.176518 0.353476 1.61853 128 41 22
-0.0682333 0.362436 1.5994 142 63 32
0.104017 0.207178 1.61579 132 27 21
-0.265486 0.315096 1.69041 134 37 20
-0.261158 0.390271 1.62552 129 47 26
-0.255279 0.0779867 1.80186 179 79 56
0.0624507 0.273173 1.58532 122 72 47
-0.266709 0.311824 1.73146 152 58 30
-0.0146096 0.29515 1.56397 156 62 37
-0.258705 0.359949 1.74714 145 45 29
-0.154841 0.44725 1.66014 138 78 54
-0.284013 0.11039 1.74524 172 67 48
-0.265092 0.325037 1.75855 148 52 30
-0.205974 0.233931 1.58477 126 25 17
-0.0865272 0.306948 1.55546 151 62 32
-0.135093 0.290598 1.54874 153 63 36
0.0806384 0.249843 1.58683 142 31 22
-0.0886945 0.501001 1.6865 135 51 25
-0.267814 0.312949 1.75943 141 40 22
-0.203676 0.29141 1.58743 126 37 23
-0.240182 0.418549 1.94373 161 83 47
-0.123436 0.249018 1.50579 199 74 56
-0.139636 0.246218 1.50582 144 42 28
-0.278391 0.187348 1.62587 163 55 27
-0.27526 0.18944 1.62329 162 54 28
0.0699885 -0.0698465 1.29516 111 64 22
0.114942 0.140641 1.81165 157 32 30
-0.295726 0.169563 1.6243 180 72 43
-0.255856 0.223359 1.62794 172 55 35
-0.0647193 0.239231 1.50086 188 79 50
0.134554 0.157631 1.79247 182 43 36
0.0783646 0.109225 1.70083 174 43 33
-0.0760874 0.0943658 1.90936 137 17 18
-0.287489 0.179191 1.66045 206 94 54
-0.0814339 0.262137 1.4903 184 64 39
0.0938324 0.132829 1.82466 174 32 31
0.142318 0.173083 1.75226 180 48 35
-0.26961 0.192254 1.60006 98 53 47
-0.0118947 0.275707 1.46863 94 15 11
-0.0941171 0.249182 1.49708 127 46 42
-0.130259 0.24234 1.51691 124 45 40
0.101978 0.188658 1.70702 85 17 14
-0.0312549 0.217437 1.48976 94 55 26
-0.0656206 0.267948 1.49183 95 11 9
-0.184498 0.216244 1.52893 143 54 48
-0.00323394 0.0315596 1.34595 84 49 27
-0.0357765 0.219207 1.50405 88 51 25
-0.00462708 0.0339043 1.35192 80 47 28
-0.184276 0.23226 1.53347 108 23 20
-0.0487712 0.228883 1.51596 108 31 25
0.0622619 0.223661 1.54291 84 14 14
0.0208124 0.233891 1.52748 89 15 14
-0.0349965 0.202101 1.47865 89 52 26
-0.232408 0.168993 1.79068 98 12 15
-0.0433604 0.229385 1.5048 96 44 23
0.0257305 0.228148 1.53043 82 14 11
0.0626429 0.186837 1.57688 103 9 10
0.00410888 -0.029862 1.30121 73 40 21
0.00367246 -0.0216118 1.29281 57 31 16
-0.0471236 0.31994 1.45555 86 15 9
0.00702239 0.263424 1.43561 85 14 12
-0.26844 0.105279 1.77933 188 90 61
-0.208747 -0.00329499 1.57318 135 77 39
-0.0797216 0.237155 1.50108 170 68 45
0.152616 0.212611 1.62336 165 82 42
0.102351 0.261371 1.58384 174 76 41
-0.139835 0.25995 1.53662 141 38 23
-0.114517 0.255748 1.50875 143 45 20
-0.274409 0.156597 1.75948 173 74 35
-0.252096 0.180106 1.71587 169 67 42
-0.279248 0.277672 1.75386 166 73 32
0.131615 0.192671 1.73856 97 46 29
-0.193325 0.211787 1.89358 182 81 53
-0.209898 0.172918 1.8543 175 82 49
0.000505353 -0.348663 1.34406 98 55 46
-0.230368 0.171786 1.81512 175 71 44
-0.230106 0.176317 1.80781 179 71 42
-0.280326 0.159048 1.72401 174 69 37
-0.239748 0.190436 1.79763 167 62 30
-0.282776 0.274525 1.74423 163 70 29
-0.229273 0.222429 1.57367 137 31 17
-0.0871741 0.536084 1.68838 136 57 24
-0.240926 0.210547 1.52832 136 28 18
-0.25849 0.350526 1.83808 166 69 27
-0.294333 0.167046 1.66302 163 52 24
-0.317822 0.139874 1.67493 169 69 33
-0.120263 0.34701 1.58254 136 57 27
-0.211451 0.354557 1.68844 156 55 27
-0.264111 0.349344 1.81992 162 54 25
-0.263152 0.317482 1.71671 143 43 17
-0.110964 0.336112 1.57255 130 43 15
0.364771 0.614116 1.82894 113 62 15
-0.276042 0.150796 1.77836 187 95 70
0.0827857 0.251138 1.63521 168 89 59
-0.00518727 0.0523356 1.37913 146 85 38
-0.277253 0.0844168 1.72856 194 109 88
-0.167633 -0.0166686 1.63832 190 109 82
0.143949 0.131092 1.67497 188 96 71
0.0878311 0.284389 1.65518 149 58 29
0.0647508 0.266768 1.65388 172 85 58
-0.144268 0.108869 1.87771 102 46 33
0.128612 0.241367 1.67901 177 93 67
-0.140323 0.251105 1.5218 152 38 27
0.142465 0.115724 1.70248 188 102 77
-0.14392 0.436777 1.61913 149 63 36
-0.205428 0.244638 1.70267 172 63 40
-0.203117 0.267097 1.64159 161 44 24
-0.142399 0.360368 1.60343 144 50 25
-0.14811 0.354188 1.96439 161 44 24
-0.204244 0.361307 1.65038 156 57 28
-0.194028 0.244373 1.66326 168 59 38
-0.125835 0.321153 1.82191 149 35 24
-0.247617 0.132352 1.82558 133 30 25
0.26554 0.560722 1.72998 140 77 33
0.0690847 0.297794 1.68948 145 45 22
-0.140711 0.288759 1.72025 146 34 22
0.308237 0.577427 1.7208 140 73 30
0.18095 0.555222 1.78208 143 85 37
0.212111 0.528238 1.72385 130 67 24
0.258051 0.55242 1.72396 133 66 24
-0.24908 0.240618 1.62113 210 76 47
-0.258643 0.108136 1.8284 188 78 53
0.145022 0.127242 1.68639 178 72 46
-0.167366 0.263466 1.54802 204 84 50
-0.270954 0.22065 1.6461 161 38 23
-0.207028 0.249831 1.56706 169 50 30
-0.143334 0.18043 1.86742 186 68 42
-0.289875 0.197049 1.70819 130 18 17
-0.179984 0.256948 1.55053 164 49 31
-0.00351392 0.230235 1.52799 145 29 14
-0.0259405 0.0563159 1.40632 151 71 36
-0.0282986 0.0653219 1.41113 154 78 44
-0.0040374 0.0619336 1.39111 143 76 33
-0.0222828 0.0482534 1.40739 152 74 36
0.136997 0.181588 1.72562 143 39 30
-0.130972 0.254277 1.52829 155 43 29
-0.0222673 0.0288306 1.38975 154 86 41
0.055237 0.220643 1.53395 175 88 61
-0.261595 0.218835 1.7391 182 89 55
-0.1793 0.271299 1.65668 155 38 21
-0.220492 0.207109 1.5251 174 65 45
-0.114714 0.253221 1.50985 149 35 24
0.23819 0.586246 1.82027 143 81 32
0.215282 0.504934 1.65482 128 60 21
-0.270818 0.183777 1.69643 182 76 52
-0.20294 0.258624 1.70782 160 45 26
0.238065 0.531626 1.67235 137 75 28
-0.238274 0.213703 1.55526 161 49 27
0.0326703 0.418645 1.58393 134 71 28
-0.201814 0.237364 1.56529 155 38 21
-0.252367 0.225667 1.68389 172 67 38
0.0647273 0.390595 1.68721 151 67 31
-0.180789 0.354554 1.62362 149 49 25
-0.0709935 0.364998 1.5928 136 41 21
0.237638 0.536586 1.70829 134 69 27
0.0462699 0.498311 1.70986 148 59 27
0.226844 0.526739 1.65105 141 80 33
0.192483 0.546915 1.75586 143 79 33
0.293634 0.564838 1.6808 141 80 33
0.283155 0.553348 1.68414 137 73 27
0.140548 0.158571 1.65947 140 79 48
0.101257 0.236133 1.59229 194 99 67
-0.280851 0.134807 1.73204 179 81 54
0.10079 0.156414 1.79723 142 78 66
0.139577 0.180743 1.73591 165 48 38
0.133512 0.133776 1.65939 164 68 44
0.135247 0.131773 1.66375 185 88 69
-0.296136 0.136499 1.68219 174 79 51
0.142488 0.195805 1.74118 153 39 38
-0.0195414 0.251602 1.50897 176 83 50
0.138594 0.164447 1.76721 138 26 25
-0.0232589 0.356622 1.58667 149 62 32
-0.205137 0.225899 1.50615 144 33 22
0.071418 -0.0742097 1.29617 103 59 24
-0.294731 0.155416 1.63468 198 89 58
-0.246058 0.197982 1.79432 178 73 41
-0.0830551 0.239172 1.5049 193 89 64
0.110209 0.153187 1.7976 114 12 10
0.0999525 0.133257 1.80805 166 33 28
-0.260372 0.210759 1.60288 145 33 19
-0.267419 0.186208 1.72788 160 50 23
-0.228406 0.201438 1.75176 170 61 38
-0.270612 0.299604 1.72165 137 36 18
-0.0555527 0.235465 1.51153 168 87 42
-0.0565016 0.259236 1.49906 157 58 37
-0.124165 0.249984 1.50019 173 52 35
-0.117014 -0.112695 1.21299 42 22 11
-0.135908 -0.0962327 1.19428 48 23 16
-0.0452611 0.0807969 1.74778 119 57 36
0.0280777 0.114638 1.88042 128 69 51
0.129998 0.123889 1.77929 181 87 62
-0.189879 0.50806 1.75303 161 67 33
-0.240326 0.20745 1.59936 194 107 87
-0.255115 0.199094 1.66467 156 74 52
-0.110796 0.24062 1.5158 155 48 30
0.128377 0.112013 1.69363 136 35 23
-0.195005 0.349212 1.68043 149 56 23
-0.0888163 0.530365 1.67125 148 43 22
-0.286201 0.184305 1.75587 148 38 25
0.112037 0.418307 1.57963 135 40 18
-0.152657 0.462937 1.66462 154 54 28
-0.102811 0.556492 1.7339 139 36 19
0.0374698 0.434064 1.67724 133 34 15
-0.299338 0.154404 1.79162 132 28 17
-0.199814 0.0471926 1.85176 181 85 61
-0.234912 0.17608 1.78077 183 77 51
-0.21617 0.173438 1.85896 183 89 53
-0.27894 0.209593 1.65825 168 52 29
-0.306351 0.147959 1.66779 157 42 24
-0.294973 0.122573 1.71176 175 70 41
-0.250288 0.21944 1.59527 155 35 21
0.137632 0.192626 1.64971 146 35 24
-0.292044 0.154147 1.73346 178 69 38
-0.269733 0.320495 1.79061 147 45 23
-0.0562417 0.567831 1.71905 133 60 27
-0.274453 0.276336 1.70024 154 45 24
-0.26955 0.143582 1.78048 181 81 47
-0.274758 0.206723 1.66425 157 40 22
-0.265687 0.385045 1.88515 174 76 41
-0.00754041 0.424946 1.66684 132 51 24
-0.214392 0.348556 1.93657 170 67 36
-0.223012 0.211956 1.72427 160 49 30
0.0595911 0.62233 1.79217 140 59 30
0.034689 0.0729634 1.65392 162 43 37
-0.255967 0.350102 1.77022 141 41 18
-0.184935 0.277965 1.94369 172 75 42
-0.286027 0.177388 1.64971 156 47 18
-0.238917 0.420925 1.71391 138 40 15
-0.268962 0.185863 1.72566 174 61 31
-0.108231 0.372272 1.61721 128 40 18
0.240817 0.546941 1.70644 140 79 34
0.0967285 0.215908 1.61196 148 35 21
-0.271331 0.305001 1.80733 169 66 33
-0.27309 0.360348 1.75225 156 48 22
0.0524106 0.113962 1.8733 191 103 93
0.107576 0.152091 1.81425 149 79 67
-0.267968 0.192233 1.76198 176 104 89
0.13567 0.143947 1.77225 197 100 81
-0.022019 0.0301395 1.69349 121 56 36
-0.284543 0.119036 1.70712 180 94 67
0.0120652 0.106799 1.8892 131 67 57
-0.170521 0.269211 1.56049 154 50 25
0.0885903 0.50255 1.81219 138 43 21
0.223134 0.53976 1.73332 150 83 30
-0.23821 0.259376 1.61865 199 114 85
-0.240482 0.263969 1.64506 171 98 65
-0.238081 0.257063 1.62374 176 85 58
-0.263555 0.234738 1.68544 128 38 30
-0.0367895 0.241583 1.51589 161 55 31
-0.244088 0.2552 1.64139 188 56 31
-0.275725 0.214764 1.69934 130 54 38
-0.321297 0.15203 1.82239 170 71 48
0.0463503 0.149293 1.57009 141 25 12
-0.229345 0.104863 1.80099 130 23 17
0.0969443 0.24688 1.63561 154 74 39
-0.0166719 0.20572 1.51988 139 61 39
-0.264761 0.251073 1.62505 159 36 21
0.114458 0.182738 1.661 173 72 44
-0.25446 0.140248 1.75696 136 24 13
-0.262424 0.145187 1.81918 124 21 16
-0.276206 0.156702 1.82022 133 24 17
-0.278134 0.237838 1.67518 144 25 17
-0.296102 0.143017 1.72856 146 25 14
-0.0484023 0.275267 1.49875 150 39 20
0.0715341 0.25983 1.58537 137 81 58
-0.163306 0.0388632 1.87236 174 78 56
-0.0476552 0.241138 1.52252 133 75 29
-0.09516 0.284131 1.54595 153 66 36
-0.188969 0.0522291 1.62168 138 68 43
-0.260293 0.358175 1.74785 117 36 19
-0.196902 0.543818 1.80527 136 59 41
-0.048378 0.236111 1.49889 145 57 35
-0.0726284 0.321843 1.69225 132 27 21
-0.280884 0.127313 1.72572 165 59 43
-0.0272192 0.239638 1.50252 141 55 32
-0.125454 0.190928 1.82649 163 60 43
-0.108752 0.284946 1.58583 131 30 22
-0.275006 0.189144 1.62304 142 34 24
0.0839685 0.248956 1.58859 122 21 13
-0.17962 0.151173 1.85684 163 53 30
-0.213841 0.185636 1.71765 136 35 25
-0.230118 0.477142 1.84272 143 40 21
0.00272834 0.0921239 1.90316 97 13 11
-0.0791125 0.585308 1.84705 127 31 19
-0.122461 0.289733 1.53355 152 36 21
0.0201548 0.285801 1.58402 150 48 26
0.103111 0.300372 1.67878 153 64 34
0.234094 0.5369 1.70187 140 77 33
-0.241991 0.329205 1.80018 160 63 31
-0.221665 0.356338 1.67597 140 45 17
-0.255738 0.127185 1.88148 142 45 29
0.0824799 0.304405 1.65473 156 62 36
-0.0649071 0.222354 1.40805 148 45 26
0.037514 0.351287 1.59662 150 70 33
0.235531 0.549576 1.75649 138 70 23
-0.25684 0.252658 1.66256 148 55 38
-0.256335 0.101763 1.80738 126 24 19
-0.354256 0.260321 1.74482 141 30 23
-0.0444759 -0.0281232 1.93527 200 78 37
-0.293493 0.188184 1.79141 138 31 23
-0.291898 0.209033 1.73589 153 32 24
-0.18981 0.186728 1.56904 149 66 26
-0.177628 0.275419 1.54438 158 41 21
-0.014681 0.250847 1.51422 162 46 21
-0.0847416 0.240524 1.50469 160 64 42
0.0352514 0.114767 1.8894 139 56 52
-0.259558 0.316228 1.73551 138 43 23
-0.0738244 0.23333 1.49817 152 51 33
-0.10306 0.590512 1.75148 123 73 48
-0.271792 0.281829 1.78174 176 77 46
-0.27389 0.280418 1.77936 154 55 34
-0.257837 0.318206 1.70606 137 40 23
-0.0587223 0.284893 1.58436 144 59 38
-0.0659909 0.287776 1.59267 148 45 30
-0.191697 0.228646 1.50398 156 69 41
-0.153093 0.354416 1.59935 144 71 38
-0.240619 0.0869644 1.83058 176 72 43
-0.217744 0.090187 1.84828 181 78 47
-0.130219 0.243276 1.64781 132 79 39
0.12806 0.2118 1.67538 132 60 45
-0.182969 0.241855 1.53951 131 29 24
-0.265207 0.352021 1.72206 133 36 19
-0.257677 0.146123 1.78244 164 55 32
0.0794345 0.222429 1.58735 139 36 21
-0.13726 0.270923 1.53932 142 43 24
-0.211004 0.127611 1.83777 166 56 29
-0.0972358 0.104184 1.91287 136 41 37
-0.0944804 0.105137 1.91594 136 41 37
-0.25316 0.364705 1.75361 150 50 27
-0.225211 0.140506 1.8048 175 71 46
-0.0377475 0.260361 1.53026 155 63 40
-0.13883 0.363734 1.6062 139 58 29
-0.176522 0.264319 1.50174 152 53 30
-0.0631978 0.545025 1.7059 147 68 35
-0.104784 0.356732 1.6608 134 38 22
-0.0702706 0.546345 1.70386 147 67 34
-0.189277 0.22991 1.65817 159 52 36
-0.18997 0.226082 1.66284 163 56 38
-0.131451 0.262994 1.64318 158 47 36
-0.188116 0.350341 1.62476 138 45 27
-0.201659 0.218883 1.66907 150 48 34
-0.160442 0.333554 1.57204 137 49 25
-0.227426 0.185289 1.77026 161 46 25
-0.279973 0.260971 1.76212 160 52 24
-0.274531 0.254498 1.78529 163 55 27
-0.272987 0.2933 1.72299 146 41 20
0.237325 0.551899 1.75575 131 70 25
-0.249234 0.333477 1.79268 142 42 19
-0.272932 0.341118 1.79518 156 48 20
-0.277182 0.327259 1.79498 159 51 23
-0.211133 0.524159 1.74743 133 38 18
-0.136158 0.248031 1.51567 195 73 50
-0.236247 0.21628 1.56827 194 68 45
-0.24124 0.214932 1.55985 181 56 38
-0.0875099 0.25204 1.5009 194 76 50
-0.153549 0.244391 1.51324 187 60 43
0.0862261 0.13374 1.84896 164 74 63
-0.0765792 0.24815 1.47707 179 76 45
-0.149227 0.105087 1.89884 174 38 42
0.00418944 0.301445 1.58244 180 84 46
-0.107505 0.250469 1.5012 185 60 38
-0.228156 0.208037 1.56014 199 80 60
-0.174751 0.108691 1.88834 127 17 16
-0.070245 0.273227 1.55991 189 58 38
-0.0648966 0.263264 1.48296 187 87 53
-0.289539 0.162537 1.69422 197 99 60
-0.113341 0.0943403 1.91997 171 31 30
-0.288123 0.1405 1.70148 214 118 94
-0.0696244 0.25183 1.49784 177 67 42
-0.0642903 0.266711 1.51421 184 69 40
0.0785487 0.121894 1.85375 178 39 32
-0.285454 0.200257 1.68568 206 103 62
-0.190923 0.116441 1.88543 114 21 14
0.0946853 0.12535 1.84115 163 31 27
0.00531139 0.277467 1.57084 183 83 49
-0.163941 0.034863 1.86923 181 93 71
-0.185221 0.0303507 1.61654 132 67 35
-0.144725 0.563248 1.73754 119 71 51
-0.265552 0.130557 1.75453 178 73 51
-0.240609 0.148239 1.77597 181 77 52
-0.0604907 0.237474 1.50233 139 48 27
-0.128753 0.368288 1.61732 148 58 32
-0.11253 0.259837 1.52059 151 56 34
-0.15603 0.247195 1.67663 150 50 35
-0.227065 0.203075 1.65828 165 58 40
-0.0797136 0.323043 1.8641 147 35 21
-0.0541433 0.299046 1.55251 159 69 35
-0.255775 0.0771487 1.80822 193 94 71
-0.267545 0.195823 1.61879 141 33 23
0.175319 0.206428 1.76293 128 26 21
-0.0740473 0.317025 1.69528 148 31 21
-0.172953 0.498219 2.01451 172 72 38
-0.241519 0.214959 1.56518 147 33 23
-0.204184 0.194271 1.86583 175 70 40
-0.177917 0.532596 1.91798 156 47 24
-0.182913 0.364391 1.62361 147 66 39
-0.124853 0.113189 1.92906 115 22 17
-0.253327 0.388445 1.89458 177 81 43
-0.23467 0.348549 1.69718 143 43 20
0.255414 0.554016 1.7273 136 74 25
-0.25238 0.406482 1.75332 147 45 22
-0.241769 0.375877 1.82906 160 52 23
-0.262731 0.438877 1.78486 148 39 19
-0.266634 0.351025 1.74385 139 39 16
-0.281349 0.331341 1.77845 156 57 26
-0.251793 0.388613 1.79141 146 41 19
-0.24775 0.378638 1.7615 150 45 23
-0.263289 0.370698 1.74308 150 45 23
-0.275963 0.277021 1.76864 150 57 26
-0.25819 0.355357 1.73176 148 43 21
-0.165657 0.379468 1.67048 137 40 23
0.0386642 0.570979 1.75086 154 92 53
-0.026016 0.568411 1.72543 139 71 36
-0.253071 0.487504 1.84121 144 46 21
-0.23061 0.325028 1.73848 141 38 19
-0.238747 0.443493 1.93354 151 60 33
0.00832168 0.529588 1.71317 155 92 51
-0.278515 0.31681 1.72513 139 40 19
-0.284875 0.308012 1.74077 144 44 20
-0.241741 0.503569 1.81915 134 43 22
-0.110804 0.573546 1.75201 132 40 19
-0.0764594 0.523609 1.64798 126 72 46
-0.270444 0.0913706 1.77465 190 95 73
-0.108139 0.455602 1.6499 149 63 36
-0.248476 0.0468345 1.75407 190 100 74
0.0751846 0.265791 1.60263 160 67 34
-0.0176408 0.449194 1.6536 152 79 46
-0.0893082 0.369992 1.58275 143 70 35
0.078984 0.298034 1.62831 157 71 38
-0.247201 0.223743 1.5906 166 56 29
-0.0981899 0.270012 1.54293 137 36 18
-0.27591 0.301133 1.72396 173 81 42
0.119919 0.496289 1.67905 141 81 31
-0.0435173 0.286197 1.60667 163 54 33
-0.012762 0.254308 1.50667 149 54 26
-0.266623 0.199918 1.56417 163 48 29
-0.067222 0.369077 1.60182 140 53 26
-0.265965 0.223346 1.65829 175 77 40
-0.207473 0.113438 1.86958 141 28 24
-0.235217 0.0810505 1.78038 110 19 18
-0.0758968 0.470361 1.65281 139 40 21
-0.241996 0.114075 1.82179 120 23 16
-0.108745 0.254413 1.4989 138 32 18
-0.257316 0.403782 1.70308 157 56 26
0.174487 0.522235 1.69424 141 77 29
0.360324 0.60369 1.7351 112 57 3
-0.272453 0.100784 1.76965 187 91 67
-0.166215 0.54993 1.7298 131 70 52
-0.0033457 0.301574 1.56348 167 84 52
-0.0600739 0.253181 1.52713 155 64 35
-0.265319 0.375124 1.78562 155 50 28
-0.229124 0.34581 1.67643 145 44 26
-0.239419 0.204713 1.4713 141 35 22
-0.279754 0.305559 1.65778 144 41 22
-0.249096 0.38538 1.74804 153 48 27
-0.240561 0.435121 1.7838 148 41 21
-0.135907 0.268496 1.57515 140 34 21
-0.275296 0.323111 1.70452 146 43 24
-0.300764 0.329144 1.7597 146 44 22
0.0263374 0.425152 1.61096 134 73 28
0.127634 0.190922 1.70286 132 22 23
-0.0865402 0.591303 1.79213 136 41 21
-0.16955 0.250505 1.50805 150 45 26
0.11479 0.203594 1.66949 128 26 21
-0.260015 0.300925 1.77553 157 49 23
-0.2672 0.329581 1.79433 155 50 21
-0.2621 0.299435 1.71719 147 42 21
-0.319523 0.255855 1.73074 160 57 26
-0.23682 0.508594 1.80767 126 33 15
-0.157985 0.533929 1.69841 128 40 18
-0.246336 0.499061 1.82545 129 41 21
-0.190663 0.36923 1.63282 128 58 33
-0.221654 0.423583 1.69854 116 49 40
-0.15826 0.401659 1.70048 114 33 12
0.0853559 0.133268 1.8467 136 69 53
-0.0652689 0.56705 1.71684 134 75 43
0.0491607 0.139049 1.55367 149 66 32
-0.190947 -0.0143048 1.65011 184 105 75
-0.226589 0.0636274 1.84007 194 100 74
-0.0556128 0.530728 1.7186 131 44 17
-0.0856562 0.371145 1.58489 146 73 40
-0.115914 0.257175 1.51865 140 37 22
0.0335839 0.242897 1.54 174 78 53
0.00787203 0.245357 1.52992 170 76 50
-0.108004 0.430246 1.60105 141 67 32
-0.0295452 0.247337 1.52732 135 38 21
-0.251354 0.458654 1.79283 152 51 21
-0.0739065 0.338691 1.4466 127 72 16
0.334722 0.631211 1.8382 144 86 38
0.115628 0.495923 1.68955 134 76 30
-0.300344 0.149793 1.68448 180 108 68
-0.192466 0.238812 1.53764 132 28 17
-0.0396745 0.351929 1.58739 133 50 20
0.167897 0.513136 1.68468 132 74 28
-0.224174 0.507657 1.75914 139 40 21
0.0754338 0.541788 1.7899 155 80 41
-0.261783 0.408324 1.67797 156 52 23
-0.196812 0.123554 1.89993 112 19 12
0.211619 0.561599 1.80579 133 69 23
-0.23675 0.222893 1.5699 141 31 18
0.248434 0.532374 1.67292 134 70 26
-0.269981 0.224565 1.65495 162 44 30
-0.184632 0.263698 1.56259 170 76 51
-0.038338 0.275587 1.52031 142 24 14
-0.18154 0.256331 1.55673 169 63 39
-0.285025 0.153621 1.64839 145 67 47
-0.0381333 0.284224 1.52903 137 19 17
-0.282507 0.112411 1.7149 174 82 57
-0.255733 0.232894 1.62738 151 29 14
-0.179351 0.276533 1.55237 214 126 90
-0.146323 0.26955 1.54603 187 85 63
-0.275945 0.251539 1.6598 166 68 57
-0.0431215 0.240503 1.51276 164 91 38
-0.285487 0.200292 1.75472 139 51 37
-0.271112 0.178399 1.81768 112 55 36
-0.223423 0.235137 1.56931 154 32 21
-0.287389 0.173487 1.75526 158 30 19
-0.0160065 0.260189 1.53845 121 16 12
-0.215814 0.250956 1.5661 155 35 19
-0.291764 0.216355 1.69368 131 16 9
-0.230486 0.117293 1.84028 111 16 10
-0.351575 0.290167 1.63708 145 28 19
-0.234212 0.277604 1.53104 175 50 28
-0.2441 0.233074 1.62294 214 97 90
-0.225562 0.135465 1.86862 141 83 69
-0.155609 0.278899 1.55972 170 96 71
-0.275632 0.190112 1.77957 136 81 60
0.0167854 0.131786 1.8382 182 67 46
-0.27096 0.161657 1.62391 159 82 64
-0.245827 0.207213 1.68764 122 48 37
-0.095473 0.111469 1.88769 185 70 41
-0.137993 0.185726 1.88013 186 72 45
-0.167072 0.254065 1.86891 186 66 41
0.0451974 0.206604 1.53424 168 69 48
0.0841738 0.209637 1.57051 164 68 43
0.0699835 0.215318 1.55289 174 74 50
-0.246696 0.137758 1.86506 117 26 21
-0.29027 0.173819 1.78411 171 38 31
0.0197455 0.101387 1.88133 173 52 23
0.0905045 0.108224 1.80049 174 55 33
0.0925367 0.146419 1.80681 156 39 19
-0.241166 0.0543891 1.79581 171 81 57
-0.122886 0.252614 1.55255 148 34 23
0.0820015 0.319643 1.68815 131 54 26
-0.0862931 0.240551 1.52219 152 32 16
-0.271864 0.226113 1.66335 133 18 13
0.0496711 0.445363 1.69765 134 64 28
0.0202599 0.222535 1.77417 166 49 29
-0.0835161 0.043449 1.90448 191 87 48
0.116302 0.12038 1.77961 149 38 19
0.061895 0.20575 1.74465 162 47 26
0.18779 -0.137317 1.1728 67 39 25
0.008751 -0.130936 1.24884 42 25 17
0.00786624 -0.154586 1.23112 34 20 11
-0.0344293 0.105292 1.91205 98 43 38
-0.0297316 0.188035 1.51469 158 61 42
-0.0580381 0.246792 1.52819 130 68 31
0.0218033 0.22411 1.5174 158 59 38
0.0727366 0.20714 1.54711 156 61 43
-0.20325 0.260794 1.59107 120 30 19
-0.255557 0.455307 1.90729 112 66 42
-0.0760764 0.0560019 1.88378 102 18 16
-0.079066 0.236379 1.50116 149 46 31
-0.128277 0.194406 1.81206 150 47 32
-0.0328201 0.0452568 1.87454 103 22 19
-0.17119 0.379926 1.64011 142 85 55
-0.294968 0.176942 1.61608 116 26 18
-0.0552208 0.23654 1.51691 105 48 18
-0.255039 0.397783 1.74738 128 35 20
-0.122146 0.248951 1.64869 104 60 31
-0.141204 0.206202 1.78193 145 43 29
-0.192173 0.291073 1.58402 127 61 29
-0.243357 0.147029 1.79176 159 44 25
-0.198459 0.232321 1.66135 137 30 24
-0.22856 0.183233 1.73008 138 32 19
-0.267412 0.346221 1.7934 160 59 29
-0.193002 0.450055 1.96766 136 37 16
-0.228213 0.0269176 1.58517 146 76 64
-0.309759 0.0541587 1.70928 187 94 63
-0.257864 0.139922 1.76533 188 88 64
0.170642 0.467809 1.88219 153 43 26
0.126711 0.180984 1.76739 131 67 57
-0.254674 0.154922 1.80251 185 88 55
0.00759421 0.279888 1.58386 162 63 32
-0.0957769 0.332598 1.53816 138 64 27
-0.233882 0.443193 1.53949 126 63 45
-0.103538 0.272529 1.55947 141 39 24
-0.25097 0.362918 1.73113 133 36 19
-0.19884 0.16119 1.88102 185 83 58
-0.232434 0.345033 1.67744 131 38 21
-0.0527266 0.290387 1.58245 152 42 25
-0.255713 0.335269 1.67693 136 41 23
-0.108761 0.546794 1.70917 138 43 21
-0.225528 0.475357 1.68648 138 39 16
0.02347 0.572841 1.7976 134 47 20
0.1417 0.186784 1.72971 135 28 20
-0.178289 0.296185 1.62397 137 34 19
-0.172356 0.261349 1.55284 145 33 21
-0.245736 0.260156 1.54042 136 34 19
-0.234841 0.436989 1.77889 139 36 19
-0.127253 0.130652 1.97892 106 15 10
-0.0521565 0.294522 1.58515 148 41 23
-0.266885 0.31011 1.75261 157 63 25
-0.260884 0.380083 1.72348 151 42 19
-0.148442 0.314546 1.40274 138 80 32
-0.228261 0.361714 1.805 156 52 23
-0.191506 0.360809 1.64151 134 39 19
-0.268849 0.330817 1.78138 143 45 20
-0.255801 0.461787 1.88534 149 59 35
-0.261573 0.452869 1.88059 153 53 29
-0.1379 0.109064 1.88451 125 63 52
-0.0393881 0.353767 1.7243 141 30 21
-0.0891823 0.461911 1.65764 149 62 34
-0.162429 0.24269 1.6203 167 58 35
-0.173511 0.523683 1.83845 139 41 16
-0.162217 0.33766 1.66449 128 33 15
0.19574 0.513299 1.67452 135 72 29
-0.171504 0.246158 1.49708 139 33 17
-0.283252 0.188245 1.70174 178 70 41
-0.000362634 0.0706301 1.68396 166 33 28
-0.0996676 0.357974 1.58516 137 50 22
-0.246288 0.336084 1.66054 127 35 20
-0.017477 0.519916 1.73556 143 49 23
-0.265806 0.354713 1.83624 172 65 33
-0.234194 0.19573 1.81113 175 64 34
-0.26542 0.186255 1.71548 156 46 21
-0.270382 0.293211 1.69815 155 47 21
0.27344 0.554878 1.72322 135 68 23
-0.277761 0.30295 1.66131 147 42 21
-0.261883 0.336275 1.76112 145 46 23
-0.23415 0.116837 1.83993 190 62 53
-0.227999 0.114025 1.83848 156 42 41
-0.235043 0.0931066 1.80417 135 17 17
0.0200572 0.0118185 1.84795 133 20 16
-0.279318 0.155465 1.78127 126 14 12
0.17463 0.138082 1.76368 160 38 17
-0.143108 0.269104 1.54713 223 119 90
-0.0605865 0.0969363 1.70597 139 63 40
0.137755 0.153618 1.73087 152 28 18
0.0564631 0.388499 1.68656 149 71 35
0.0926991 0.38748 1.7172 166 83 39
-0.295617 0.1764 1.7602 170 33 23
-0.0690377 0.0868 1.7271 148 27 19
-0.376301 0.104991 1.71065 28 10 6
-0.264515 0.356258 1.74455 144 45 26
-0.26367 0.475006 1.85224 142 76 52
-0.271172 0.192111 1.62654 149 38 29
-0.240535 0.393812 1.76214 139 44 24
-0.244618 0.36027 1.84636 152 48 23
-0.277014 0.188805 1.61656 138 31 25
-0.163828 0.0580991 1.86517 113 22 19
-0.249349 0.288403 1.72083 136 36 20
-0.143012 0.267616 1.58987 129 28 20
-0.269295 0.284849 1.77155 149 49 25
-0.0273595 0.28196 1.55278 155 52 35
0.14515 0.188206 1.74287 126 24 20
-0.226548 0.258778 1.80204 146 44 22
-0.213461 0.244079 1.67446 142 31 22
-0.242143 0.204195 1.72195 146 33 19
-0.262645 0.341198 1.7535 137 37 21
-0.250346 0.420632 1.72209 130 35 17
-0.160276 0.388856 2.00302 171 77 41
-0.262111 0.338455 1.80411 146 44 19
0.000867264 0.566478 1.73057 144 80 44
-0.231517 0.455372 1.94487 148 61 34
