ply
format ascii 1.0
comment Created by Open3D
element vertex 1346
property double x
property double y
property double z
property uchar red
property uchar green
property uchar blue
end_header
1.14615 -5.75955 -1.82078 84 110 49
3.42964 -3.63224 -4.13319 68 86 46
-6.2693 5.20283 8.71226 132 128 67
1.82138 22.0589 -7.62617 140 137 118
0.938387 -6.434 -1.21464 69 96 41
2.86696 -4.32189 -4.04403 94 112 62
1.27679 -5.51855 -2.67149 85 118 49
-18.3705 14.6506 -1.40185 155 150 130
0.915946 -6.27663 -2.4377 103 133 69
-4.69725 -4.04416 5.46726 74 97 41
1.91929 -6.9009 1.82857 116 129 49
5.85223 6.77255 4.56473 100 106 46
7.03285 2.22153 3.86417 72 90 50
6.03278 2.04305 2.75894 58 90 41
5.22408 5.65299 1.80482 99 115 52
3.99697 -2.48566 -4.86698 99 119 70
3.40992 -3.60635 -4.08164 85 104 58
1.11144 -7.90215 1.47662 146 157 78
2.08712 -4.59595 -5.87126 131 149 75
1.20453 -7.9571 1.32058 148 155 78
-5.72229 5.5227 8.35912 139 136 83
4.25223 0.234419 -4.95055 139 150 45
1.10682 2.41552 -2.16499 153 167 72
1.68507 -6.88702 1.98133 120 133 53
-1.68389 -2.97902 -1.1953 75 102 47
5.42006 0.0601858 -4.219 157 157 67
4.39083 -2.56679 -4.47996 77 99 50
1.59482 -4.0827 -2.48034 65 84 39
6.23617 6.32148 1.44089 112 136 60
1.25375 -6.12381 -1.99903 90 119 53
7.07259 2.22009 3.93517 64 82 44
1.14283 -6.21135 -1.76492 76 106 46
1.6994 -5.74253 2.03669 102 114 40
-0.450541 0.322056 5.1819 71 101 39
6.10003 2.08022 2.8916 53 77 41
5.23854 2.31981 4.78588 66 88 49
2.79251 -4.47064 -4.3 100 118 66
-0.534799 -1.44699 -2.3064 111 122 54
2.46803 -4.84587 -4.50213 110 130 79
0.509959 -5.3554 -1.68166 64 87 31
1.63428 -3.78744 -2.76581 59 86 33
2.67508 -3.84397 -4.45079 90 108 58
1.53198 -3.68433 -2.41546 60 84 36
4.72966 2.54154 2.69075 66 96 42
6.13195 6.84209 2.78465 108 111 32
6.64869 1.64299 4.26467 92 114 49
-2.20316 2.48834 1.22929 144 149 82
1.12042 -7.82161 1.53412 126 147 70
1.47986 1.71732 -2.29533 148 158 59
1.05213 -7.60921 2.04997 107 129 56
1.03817 -7.28469 2.19637 82 107 41
1.09112 -6.18344 -1.92051 86 114 53
2.06459 -7.72068 1.18395 108 132 48
1.50794 -3.48252 -1.83802 63 87 37
5.99338 5.15753 5.07061 86 97 39
-0.0217237 -8.22204 0.172617 143 164 108
3.40136 -2.96453 -3.66846 52 67 28
-4.20628 0.196917 5.07926 169 167 106
3.17041 -3.00552 -3.65958 53 68 27
3.95997 -2.85845 -4.31364 101 124 56
4.00154 -2.98196 -5.06634 108 128 79
1.66829 -7.8933 0.923168 90 108 48
3.46477 -3.07525 -4.78685 69 87 45
2.47727 -6.50324 1.41584 92 114 49
3.21099 -2.73223 -3.55335 68 82 33
3.71432 21.4153 -8.20713 145 141 129
-0.633097 -4.1994 -1.65227 91 90 46
0.753171 -6.84292 -0.981604 83 112 48
-4.01977 -6.07866 3.834 115 132 77
1.15053 -7.75441 1.65415 115 136 59
-0.685669 -4.1376 -1.64732 92 91 47
2.24954 -7.30009 0.199886 92 120 45
3.49831 -3.77226 -5.14307 84 109 51
0.156183 -3.17187 -0.871441 85 87 40
3.79656 -0.130287 -4.68452 118 136 36
-3.84325 -5.49879 3.04413 57 80 24
1.02505 -6.56431 2.50977 76 100 38
6.60519 9.47787 4.34357 105 126 33
-7.17785 -0.891217 5.28416 110 133 61
4.23416 0.0156541 -4.75364 124 143 36
6.61245 2.31332 2.7778 52 79 36
1.0554 -8.53818 -0.0722596 151 168 123
5.89025 6.14735 1.832 88 113 32
3.40247 -2.61505 -3.81471 48 62 26
2.14338 21.2413 -7.23986 141 136 116
0.988357 -5.73606 -2.55242 83 121 46
-6.12558 -1.46835 2.31526 102 127 46
-22.4564 11.4958 -0.351627 88 91 36
1.30102 -5.57231 -2.52752 79 115 43
1.55226 -8.18029 0.470679 131 152 85
2.48598 -6.27464 1.44686 82 107 42
4.80486 5.46436 3.1628 51 63 27
-6.19688 4.4671 1.82125 111 107 80
2.2694 -4.97284 -4.39545 101 122 66
1.03808 -1.71059 -2.83487 107 109 46
3.54981 -0.729798 -4.00458 117 130 40
2.07317 -7.74604 0.63413 109 132 62
2.06539 -6.00618 1.64577 103 112 29
6.06698 8.2707 3.9831 109 128 39
4.90458 5.34101 3.71219 64 88 38
0.267335 -2.02247 -1.73735 73 100 31
2.0374 -6.22681 2.11225 101 114 34
-5.91219 -1.22619 1.39346 80 112 37
4.51588 -1.23127 -4.65982 51 68 26
0.26706 20.519 -6.87025 115 111 86
6.21884 6.29729 1.52638 102 126 50
2.18069 25.4694 -5.72566 132 127 107
-7.14285 0.129588 3.42056 138 150 40
6.48009 7.25186 4.64741 103 123 34
-7.13141 -0.449205 0.0689409 115 144 60
-2.67475 -2.23516 0.269734 72 104 28
5.84248 5.23333 3.00143 78 92 39
1.35178 24.9293 -5.5775 127 124 105
6.24343 8.81624 4.81623 95 113 29
7.24887 7.69338 7.04331 208 208 156
3.71163 -2.38353 -6.29867 120 139 84
4.88979 0.155395 -4.64394 99 117 43
-1.06669 0.411895 -3.40725 102 108 38
5.68082 6.41555 3.02911 129 134 80
-4.91132 -6.45364 1.00969 201 195 171
3.97457 6.85353 -0.22342 183 183 133
-2.41937 1.08297 -4.77776 88 114 41
6.23922 2.41877 2.60899 66 83 47
-0.813075 -0.991217 -4.39108 109 122 53
-6.37796 0.622763 -0.392313 89 113 35
5.64461 -0.720038 -4.92263 213 215 191
-0.727737 -0.868252 1.17761 208 203 199
3.79705 -2.33749 -3.98513 77 99 35
1.4195 -1.28752 -2.82216 139 137 89
3.18908 -4.35749 -5.57689 133 148 93
-2.37576 -5.3454 -6.48807 171 170 152
-1.77595 -0.337823 -4.25882 126 134 113
2.46398 -3.35259 -6.16375 72 91 46
-1.65396 -4.85507 -7.35436 126 136 102
-4.611 -4.63134 -1.03293 99 113 34
2.41399 1.70106 -2.27295 174 172 121
-6.09426 5.45036 8.33165 141 136 96
-6.99421 -0.110549 -0.183477 117 137 52
4.58641 -0.743144 -4.78609 94 111 66
4.57915 -0.726829 -4.76907 80 99 53
1.78251 -4.60161 -5.67533 129 143 90
4.5252 2.49988 4.87947 100 110 85
-0.976569 -1.69075 -3.28052 84 103 48
-1.4084 -5.24031 -5.13738 165 160 128
-3.17437 -5.5982 -5.82033 165 163 148
5.38231 3.81555 5.56484 111 122 54
1.86929 -4.67065 -5.41876 155 161 117
5.71845 -0.336533 -4.43217 140 155 72
4.76646 8.98263 5.84297 125 135 49
1.42656 -4.08157 -6.23447 100 117 72
-21.7567 13.7661 -0.891326 131 130 128
5.50008 -0.945771 -4.67395 105 134 41
7.01087 1.79653 3.82517 97 115 73
0.993148 -6.23111 -3.64607 180 178 153
1.61214 -4.37404 -5.46404 119 132 88
3.46158 7.84334 -2.00253 84 99 42
1.70199 -5.41192 -4.80778 122 136 101
5.08408 4.88194 1.76974 78 94 58
7.36892 6.36624 6.52181 159 155 108
5.93081 0.0624509 -4.46412 113 130 50
3.01435 8.91004 -2.14224 76 85 32
-2.17972 4.87103 9.7715 135 132 97
6.37773 4.31717 5.66496 108 113 59
4.5213 8.98472 2.45347 106 122 33
5.15228 5.26328 1.2623 80 97 55
-2.2009 -5.52755 -5.73572 78 106 32
1.45119 -5.3529 -4.6952 131 147 100
6.18175 8.93665 3.5908 112 124 50
7.85144 6.95647 7.35204 107 115 38
1.49174 -3.90116 -6.19642 75 94 48
-2.07113 2.45431 1.25091 112 119 51
3.7763 -3.20435 -5.68159 103 121 81
-3.4714 4.34863 -0.859074 132 129 60
3.74003 8.29711 -1.03816 87 103 41
5.55928 -0.857672 -4.95237 125 147 62
2.84521 7.8562 -1.92918 82 103 36
2.01621 -5.74363 -4.59179 103 135 36
3.73766 0.550134 -3.9993 89 113 39
-16.7622 14.8632 -2.43685 154 153 149
4.3012 5.852 -1.44766 60 77 33
-3.9843 -4.76314 2.35685 70 90 39
3.59085 7.52 -1.2295 95 111 46
5.0427 8.50257 1.57021 85 100 35
3.91983 0.439981 -4.30327 88 116 41
3.12726 -3.35865 -6.05532 103 118 77
6.55178 6.10216 1.17455 99 116 61
-1.12817 -0.187751 -3.59595 77 99 35
-4.80293 -6.20453 -0.00679232 86 115 35
5.78606 8.53668 5.42349 111 119 46
1.08452 8.42337 -1.74012 93 94 34
4.88951 5.37189 1.70211 84 102 50
-14.0523 15.6568 -2.84513 137 134 129
6.44514 8.23344 4.07964 95 105 44
2.30565 -5.13192 -4.48067 97 125 41
-3.90786 -5.34739 -2.2421 86 115 33
-5.01648 -6.28694 -1.34446 72 96 46
3.67767 0.576856 -4.21589 89 113 39
-2.92824 -4.43446 -6.24453 74 96 47
2.36753 2.02418 -1.7973 80 106 35
4.4367 5.32144 1.90996 83 104 39
-2.02823 -5.24512 -6.26586 81 114 35
-4.21025 3.406 3.01869 108 121 41
3.14975 -0.498318 -4.07188 84 105 38
2.21391 -3.09635 -6.08891 53 74 33
1.78768 7.77136 -2.45143 74 100 37
-2.23664 0.555661 -4.60689 91 115 37
1.8992 8.97382 -1.89222 82 104 31
-0.70794 -0.688537 -3.58938 82 103 36
-2.34259 -4.37429 -6.87222 91 112 69
4.45483 5.50127 2.86429 76 96 35
2.9503 -0.892396 -4.21104 68 91 37
4.5301 1.0406 -4.99521 95 120 39
-23.565 13.1479 -0.180385 142 142 140
3.02487 8.35535 -2.36474 81 101 40
3.933 -0.799177 -4.12199 65 87 38
1.99405 8.98471 -1.21128 81 104 36
-4.91475 -4.81652 -1.44383 64 86 24
-1.69864 -5.46371 -6.07633 84 111 32
7.83172 6.50388 6.50429 112 124 42
-6.92256 -0.571672 5.33728 99 117 43
2.10061 8.80395 -2.16081 71 92 33
-1.79108 -1.41965 -3.65354 104 123 42
4.91364 9.35484 7.70241 83 93 30
4.48155 -1.6322 -4.52771 68 91 37
-20.7905 14.215 0.109139 150 145 142
-23.6965 12.1753 -0.499741 138 137 132
-6.38622 -0.0127355 -0.311333 81 109 34
-15.6899 15.7931 -1.92994 122 121 116
8.35956 7.09056 7.68213 95 106 28
8.29166 6.73464 7.48969 108 109 31
0.924012 2.33153 -1.28148 102 124 26
-0.936732 2.13533 -3.25541 112 126 41
4.79754 -2.0561 -4.76888 151 152 138
-4.42593 -6.2286 0.0885872 202 205 158
3.2457 8.0121 -2.37966 89 108 42
4.4162 6.093 -1.01406 219 214 172
-6.67497 -6.41771 -0.27082 182 176 154
2.78109 -0.383215 -4.61106 242 236 236
-4.95258 -6.07452 2.42018 145 167 105
-2.9783 -1.08596 -4.64151 117 128 96
-0.450368 -5.56438 -6.60742 157 161 138
6.01241 8.29567 3.42183 110 118 43
4.45748 -2.1308 -5.4572 117 128 94
-1.03306 2.46452 -3.22342 114 116 43
6.14696 6.26354 1.25672 110 117 63
-6.49285 1.19744 2.08195 114 119 55
8.13378 6.38485 6.9584 134 144 71
-2.07592 -3.85702 -3.96274 107 123 84
8.7788 7.32622 8.10914 191 186 130
1.28954 8.95706 -1.55392 74 95 28
4.44531 9.15029 6.92333 122 141 51
2.68153 7.43109 -1.8936 93 122 40
3.60283 7.2504 -0.96438 102 113 55
-15.0285 15.2283 -2.48233 147 144 135
-0.696357 -3.58055 -6.05682 103 111 64
4.11835 -2.5715 -5.16042 89 103 77
-0.725573 -1.16899 -4.07778 91 111 48
1.33031 2.24146 -1.80341 105 130 39
3.59806 0.173524 -4.03207 91 114 44
8.49254 6.78149 7.69747 128 132 56
2.6552 6.82304 0.106852 81 94 40
0.672241 -1.49838 -3.84381 68 81 37
-0.627409 -5.79407 -5.52677 99 132 41
6.44834 4.2799 6.21901 107 107 55
-3.21586 -0.597916 -5.34756 86 108 46
5.6816 1.83303 3.03835 63 90 49
-3.02562 1.06707 -4.51869 86 117 37
-3.25234 -0.660321 -5.41851 97 118 59
-17.5877 14.9333 -2.27598 133 131 132
6.32962 8.48739 4.9941 96 108 44
4.18164 6.63292 -1.51365 84 96 48
4.03084 6.38575 -1.27731 72 92 41
-21.7222 13.4134 -1.06441 140 140 138
5.14424 2.526 4.23403 48 55 37
7.60539 7.56708 7.62191 82 104 32
2.1679 -5.60334 -4.70762 96 125 32
-23.9766 12.661 0.214642 145 144 142
-2.74848 -4.04961 -6.23769 75 97 51
5.5479 4.99391 1.93633 69 84 41
3.50756 2.6297 6.09957 147 143 82
5.69771 3.14796 4.07693 48 53 30
-2.45393 0.939703 -4.79356 88 115 38
-2.77613 -4.63532 -6.20441 79 102 56
2.70029 7.94486 -2.41285 73 95 31
7.9086 7.00751 7.52326 97 109 37
2.2106 8.10082 -3.01162 80 105 39
4.64402 6.44735 -0.180984 126 125 71
-15.0716 14.9258 -2.79822 142 138 129
-17.1063 14.7196 -2.0436 143 143 141
-0.0175132 -2.49182 -6.21096 60 81 40
3.48335 10.2594 10.3231 75 96 31
-5.99496 -5.89898 -0.939017 69 93 45
5.90025 2.57409 4.55673 33 42 21
6.76149 8.55497 5.91488 95 112 34
3.46136 -0.819814 -3.77962 85 114 34
8.39933 7.16033 7.59231 105 112 34
2.56782 7.85429 -2.90543 68 89 32
4.69736 0.610594 -4.57823 94 119 38
5.11161 0.667554 -4.57222 99 123 39
-4.46432 3.94597 4.09502 119 128 47
-2.22177 0.0903648 -4.06222 87 114 35
-2.24983 1.39334 -4.8163 76 102 37
-0.303399 -1.22162 -4.21986 61 84 30
4.08164 0.834915 -4.48511 92 117 36
-20.9885 13.7327 -1.23097 136 134 135
-4.3919 3.95427 4.14312 111 126 45
5.6293 2.73212 3.52266 101 123 58
0.734012 2.98099 -1.28484 230 227 212
-8.13849 -0.916333 4.69238 136 147 78
0.88795 -4.81076 -1.89661 101 114 44
6.82878 6.46651 2.69384 134 131 34
0.782956 3.52745 5.98902 144 152 67
3.29345 1.31765 -4.6292 153 148 54
1.96562 -3.64649 -3.82972 151 160 105
-1.83256 0.174286 2.94918 136 137 77
5.83166 2.14271 3.0393 139 143 128
2.23808 8.30919 -1.41113 122 142 45
3.103 0.818573 -4.49135 127 134 38
-6.00107 -6.59818 1.22863 188 196 147
0.143987 1.40274 4.10265 165 160 156
-4.40591 0.233819 5.09152 169 166 111
7.31426 26.8793 -5.45657 181 175 163
-3.23592 -8.33939 0.717881 199 204 163
4.68585 2.81027 5.45143 109 125 80
-0.212039 1.18676 4.32437 167 173 147
0.818187 7.5954 -1.37017 124 127 70
4.34899 5.76387 -1.92677 103 110 76
-6.81519 -2.01886 2.75216 153 167 92
-2.20988 1.98018 2.06632 125 141 131
6.12941 10.4238 4.35769 221 215 155
1.09556 -2.42316 -3.8427 113 112 66
7.14857 7.70682 11.907 101 122 43
8.46767 6.79892 8.16188 150 150 64
2.00358 1.9191 -1.67471 174 171 90
8.56633 6.86449 8.48132 150 148 61
2.43832 -6.79163 1.51685 113 134 69
7.11638 8.1719 11.5924 123 139 51
6.4585 4.69224 5.58604 131 131 71
0.649512 -8.35744 1.59274 112 132 73
5.8478 8.21676 9.47007 106 137 43
2.15217 1.66638 -0.993637 140 158 76
-5.70413 -1.21897 1.07121 130 154 80
1.78823 -7.16565 0.436054 94 115 58
6.11584 7.86672 9.90768 111 137 48
0.931133 -8.55999 1.32266 124 142 82
3.44233 -1.63694 -4.33175 90 112 50
1.17054 7.13571 -1.31104 130 141 72
4.67161 8.89714 8.94238 123 144 53
6.60849 2.05585 3.0201 59 87 47
6.25507 5.25539 3.66702 100 115 46
1.85655 -4.15637 -3.39273 64 82 40
0.551467 -8.21901 2.08714 108 119 51
2.05709 -7.28649 0.575314 101 126 68
6.36808 2.11249 4.78186 54 75 32
8.35944 6.2792 8.08866 119 139 44
0.775599 -7.78547 2.836 81 97 50
-5.03308 -5.98767 2.59887 110 132 67
0.234703 -2.54132 -0.55891 107 104 51
-6.0492 6.11352 7.92408 153 150 99
4.55994 5.20645 -1.26651 102 118 71
-7.05138 -1.07729 5.13274 131 151 80
-0.644226 0.408676 3.94357 95 104 77
5.68148 6.68258 3.64222 121 124 69
8.36553 7.19507 8.71673 159 154 62
0.611025 -1.55815 -3.87014 93 104 46
-1.23791 -0.962146 4.49764 86 99 90
6.40874 5.25406 3.2417 109 126 56
6.23691 5.51363 2.78524 112 122 59
3.35714 -3.63662 -3.94258 71 89 47
6.37328 2.3019 4.72984 64 81 37
1.73797 -7.02716 1.79304 113 128 47
8.15753 6.77338 8.49446 111 133 35
6.33426 1.76732 4.62906 74 94 45
-1.42069 -7.9405 -0.463839 210 211 171
6.49959 9.73834 4.00974 121 138 46
-24.7737 12.6967 0.49755 148 143 124
3.81774 -1.8733 -4.29091 73 96 28
3.32652 9.36144 8.4175 127 145 59
1.93972 -7.61555 0.320258 93 115 50
1.50995 -7.01534 1.96891 110 128 42
-5.54095 -6.3512 2.3707 89 119 47
-0.471384 -1.32221 -2.675 106 121 40
2.08558 -4.21809 -1.09737 58 77 31
1.39172 -3.74495 -1.69171 58 77 31
0.112913 -8.65508 2.46083 151 148 79
1.06081 -5.75409 1.79256 89 105 34
1.6003 -7.8182 0.959439 110 135 54
4.00626 9.28706 8.11593 139 155 66
0.700098 -7.98575 2.96011 102 118 56
5.90354 4.91123 3.1119 61 76 37
5.16253 2.41697 4.55065 76 99 55
3.4859 -3.48065 -4.2871 85 103 61
4.73854 0.188244 -4.62889 145 156 51
1.48895 -7.98769 0.689236 122 144 72
-0.0215326 -8.66808 2.01219 146 147 81
3.09767 -4.23138 -3.65333 79 98 52
7.51873 6.04791 8.39882 104 134 36
3.8429 -3.00599 -4.91212 107 128 72
1.39609 -5.13842 -2.70853 66 90 38
4.06196 5.22993 -0.73805 90 127 47
1.2266 -5.68677 -2.5725 84 117 46
-5.34771 -6.13727 2.59543 91 117 46
1.8153 -7.56564 1.39194 111 129 53
6.35571 5.28812 3.35312 106 122 49
1.45761 -4.06297 -1.88629 61 80 34
2.78799 -3.26709 -3.61721 58 75 31
1.75297 -4.93859 -2.79484 78 98 47
6.68843 1.58424 4.3193 96 118 53
3.65328 -3.0266 -4.35567 62 78 41
1.29091 -5.86817 -2.21072 90 120 58
0.118063 -8.82083 1.99105 138 144 82
1.67535 -7.88819 0.588588 107 130 60
6.2557 6.2904 4.66039 117 122 56
1.36437 -7.39436 1.67171 136 146 60
5.45418 7.84714 11.1948 94 129 47
1.72106 -4.55357 -3.7192 49 68 23
1.64922 -7.826 0.0931337 98 123 57
-6.41677 -0.97888 4.57672 96 122 33
1.57628 -3.76457 -2.7366 64 86 39
5.93038 5.10813 2.54613 64 87 33
3.23979 10.4918 8.60178 126 143 49
3.50788 -0.245025 -4.09289 132 146 48
-1.54465 0.249959 5.08096 105 135 63
-0.628082 -8.77088 2.46521 146 156 93
4.25863 -0.531551 -4.35859 90 113 35
4.74425 8.0124 11.8929 101 130 46
0.167621 0.0923291 5.417 70 104 43
0.146689 -2.7153 -1.0118 70 84 33
-4.15479 -5.09989 2.76242 61 84 28
6.11925 2.49285 4.80942 54 65 35
2.2608 -6.25449 1.67074 86 106 34
4.49015 2.55769 4.86559 70 98 50
1.48875 -8.01 0.56859 125 146 77
6.2726 5.09269 3.41393 94 112 50
0.864978 -8.43182 1.36271 119 138 74
1.33577 -5.51384 -1.84678 55 74 28
3.69815 0.775979 -4.20919 146 151 51
7.97758 5.44993 8.4081 96 127 34
6.54936 6.9793 4.89016 119 129 58
-4.75226 -3.64078 5.40803 60 80 29
3.0081 -3.69208 -3.66906 87 107 58
4.01475 5.78995 -0.566086 80 110 36
1.47207 -7.63203 1.45792 104 127 45
-4.58784 -5.37582 2.40148 75 96 37
5.30536 7.8159 6.67854 143 156 66
1.49216 -4.93596 -3.16899 87 110 54
-0.303042 -1.81228 -2.51018 80 107 28
-4.39137 -5.4246 2.87974 55 75 24
4.37303 -2.25563 -4.12829 72 96 36
8.23592 6.65773 8.21677 114 134 37
1.89021 -5.88083 1.91366 96 108 36
1.79411 -7.33871 0.695096 76 97 41
1.94028 25.6275 -6.43789 111 107 82
3.38313 -0.341868 -4.01966 124 135 41
-3.27043 -1.6177 -0.55831 65 91 26
1.80672 -7.92662 -0.0511376 99 126 57
6.45674 6.60702 2.81574 124 120 29
6.4238 6.09829 2.08197 77 108 32
3.50392 -0.305715 -4.28329 129 147 45
3.96245 -1.43233 -4.48987 52 69 24
1.3495 -3.19461 0.105737 94 94 40
5.88246 5.98178 4.52418 78 96 36
-6.95865 -0.188242 5.0285 90 113 33
1.85024 -7.17598 0.258536 70 95 38
6.61334 1.84499 4.32885 81 105 45
-4.32941 -4.17729 4.70059 55 72 30
3.4562 9.70875 8.76529 115 134 44
5.72598 6.98517 3.15959 87 107 36
4.55585 -1.18833 -4.60759 45 57 21
1.05675 -6.47917 2.31021 63 84 27
2.17922 -6.40496 1.84743 98 116 34
-2.72257 24.3138 -4.73622 134 132 111
6.36658 4.97338 3.38975 88 103 48
2.77935 11.0429 9.58332 111 134 46
0.906326 -1.55832 -2.86167 102 103 43
-0.0942813 -2.12932 -1.74971 62 88 25
-3.94684 -4.80405 2.73779 51 71 20
-7.38788 -1.59245 2.005 87 111 35
0.83341 8.89762 -2.17507 116 138 38
-6.5603 -1.55431 2.06494 90 114 38
4.06256 9.52978 8.57342 122 139 47
2.40282 9.85163 9.82704 105 124 43
-0.0654414 -2.10358 -1.74473 61 82 23
7.44617 6.20172 8.57489 98 129 35
-4.43043 -4.25405 3.99034 42 61 16
2.52801 -3.19007 -3.75122 49 68 23
6.06048 8.12427 4.64599 117 117 55
3.45862 9.75237 8.48459 106 125 35
8.05984 5.60973 7.73671 80 108 31
-7.49929 -0.771681 4.64511 94 118 44
-3.81152 -4.31946 3.87965 54 66 26
-6.53998 -1.14234 4.97189 84 107 39
-8.00333 0.503987 3.64036 101 128 25
6.53313 4.88092 2.82225 72 95 27
-4.01101 -5.24507 4.26945 45 56 22
4.65519 2.50197 5.25965 63 91 43
6.9098 9.13997 4.23136 102 118 29
6.5762 6.82432 2.49118 118 117 27
-7.95482 0.269024 3.46567 111 124 32
-6.24437 18.5401 -5.49872 115 115 107
5.92498 5.30843 1.8045 86 94 45
4.29651 0.627429 -4.5777 94 114 45
6.23359 6.71566 3.7141 75 82 28
-7.52657 1.51513 5.20808 110 119 62
5.70934 2.37878 2.37431 97 108 32
4.53294 5.52327 -1.28081 84 110 45
5.64901 5.03285 3.7337 81 99 51
-0.279965 -0.693209 4.1936 101 106 66
-11.3678 16.4129 -3.58289 193 190 175
-0.732864 -0.25983 3.7604 190 191 133
0.0904754 20.1503 -7.06243 138 138 130
6.82624 1.74223 3.81904 80 98 50
6.69954 1.47996 4.29648 193 188 133
-5.28495 5.52713 8.32261 152 148 103
2.83726 7.96431 -1.84161 134 140 78
3.76937 7.60556 -0.465033 81 90 37
3.88068 7.09463 -0.15253 105 114 47
5.60115 1.89382 3.00744 58 81 39
6.00529 2.33029 2.51436 51 73 35
-11.3022 22.1936 -0.984838 111 107 95
3.98028 6.71064 -0.714015 87 96 39
-5.22131 5.51623 8.15567 133 131 82
-3.9542 22.8468 -4.25035 115 121 121
5.85333 1.87763 2.52083 52 74 36
5.16537 0.641923 -3.8174 84 94 31
-1.7454 2.23817 1.50439 129 133 57
4.10199 7.00949 -0.0551778 105 115 54
-0.341008 0.719306 3.77887 75 86 46
-4.86988 2.58777 4.32022 100 111 33
-5.78656 -1.18694 1.0908 82 102 53
4.96826 4.93631 1.5083 69 85 48
6.63801 2.98935 3.54286 34 44 20
6.78499 1.73415 4.24855 87 103 58
6.91155 1.66895 3.22552 76 88 52
3.37217 8.75583 -0.863081 96 101 35
7.06536 1.71306 3.73235 80 96 51
7.19759 2.56422 3.19069 33 42 21
-22.5484 13.2966 0.251293 131 126 106
-6.02374 6.13783 7.5868 118 116 68
-3.87121 -4.9395 3.99507 63 75 37
-1.71099 1.98048 1.59455 117 130 50
5.63108 4.19254 5.21713 69 67 29
-5.74411 6.16632 7.59809 89 89 53
-2.83973 2.24342 2.63833 91 95 34
-6.91995 1.3098 5.25119 108 110 37
7.19011 1.81911 4.13698 101 117 70
5.082 6.45166 0.49484 64 68 31
6.6895 1.82146 3.8935 74 91 47
5.66502 0.402478 -4.13822 85 95 35
4.60113 0.965572 -4.48444 86 106 37
6.16939 6.17277 2.26006 82 86 35
3.87913 6.24569 -1.21 66 79 36
-18.3952 14.3793 -1.20165 161 156 136
6.23878 2.36671 2.53936 49 66 34
6.7437 2.53334 2.74709 31 41 16
-2.54311 0.824606 -4.49941 67 80 36
3.08024 8.53653 -1.41725 84 83 35
-0.941426 0.629428 5.85151 78 104 31
6.17353 1.751 2.80398 62 85 41
6.50675 1.81506 3.34539 50 67 35
2.1558 8.40394 -1.88103 78 93 36
5.68751 6.00531 1.43796 92 92 38
6.00817 5.80085 4.71952 62 70 33
5.65572 -0.164104 -4.47348 107 120 48
5.09873 5.40037 1.71042 59 73 38
-0.841058 0.53958 5.87061 59 83 25
6.98372 2.43611 2.92706 29 39 14
0.613707 20.8679 -6.78745 125 121 96
5.37521 5.38704 1.39553 61 75 40
5.30558 -0.379688 -4.37287 107 126 45
6.12791 6.45818 1.56581 64 79 36
-2.1497 0.753701 -4.42419 65 85 34
6.62637 6.09803 1.43402 66 84 36
6.1475 6.19156 1.76075 74 95 38
1.22867 1.83827 6.20922 79 76 33
5.82108 4.13361 5.44961 96 99 46
7.01493 2.05051 3.20796 48 67 37
-5.91665 -1.09605 1.72049 57 77 26
5.6239 0.273005 -4.27274 84 99 34
3.34674 7.06172 -1.15488 67 81 32
4.53496 0.367153 -4.62825 95 112 42
-20.4059 13.1286 -0.88592 134 131 124
-6.54714 18.3894 -5.25239 125 125 115
6.5277 1.88653 3.54617 43 60 28
6.70428 2.1346 3.24934 56 78 42
4.91667 5.46331 1.32195 57 73 36
-22.4264 13.1111 0.0356636 136 131 111
6.28718 5.99545 3.2653 78 92 41
3.10781 7.79652 -2.172 80 102 37
5.07137 5.44175 1.42787 54 70 34
5.22501 5.21807 1.49359 66 82 43
4.65904 -0.136429 -4.37807 81 97 32
-10.4474 22.0602 -1.74403 101 99 86
5.65181 6.04368 1.30236 72 75 32
5.50468 0.839744 -4.13587 84 99 32
2.86914 8.20626 -2.25458 77 99 35
3.63585 7.11512 -1.05952 59 75 28
5.64609 6.52028 4.15696 50 61 21
7.05678 2.0869 3.32921 46 65 33
-7.00615 18.1676 -4.9873 118 119 105
-4.23235 -3.78585 4.829 46 59 29
4.91211 6.64447 -0.173903 85 82 37
-4.95714 3.05067 4.22522 89 101 29
6.69348 6.01211 0.954199 77 86 41
-4.19992 18.663 -5.62383 134 130 118
6.26163 2.37787 2.91795 31 45 20
6.36479 2.2975 2.64136 36 52 23
-8.19409 18.0257 -4.31194 102 99 82
0.279361 20.2565 -7.12848 139 139 129
5.0773 0.269525 -4.13577 82 97 32
5.94288 0.0623513 -3.84875 94 110 35
6.59196 2.88231 3.41159 30 40 16
1.55221 20.7827 -7.4716 128 129 111
5.49161 1.08064 -4.473 81 98 30
7.09516 6.18393 2.12888 105 104 24
6.42038 2.92666 2.53943 31 44 16
-4.47308 2.92795 3.72957 85 101 28
-2.36758 1.0268 -4.52807 45 62 17
5.49214 0.235579 -4.15505 85 97 33
3.54316 6.57709 -1.00135 58 66 27
6.67822 2.13878 3.61066 48 65 33
6.23026 6.17636 1.35731 72 84 36
-5.78419 18.7421 -5.55423 109 109 99
6.06061 0.183553 -3.97428 87 94 27
5.65606 1.81459 3.03654 46 71 29
-2.95151 20.1534 -5.6107 102 98 86
4.51649 7.78134 0.777109 60 74 25
4.35553 5.79686 -1.07159 40 52 16
4.82921 5.54417 1.38005 56 72 35
5.66711 -0.103017 -4.23576 79 95 32
6.83466 6.25387 1.78558 65 83 31
-0.98448 2.47917 -3.00455 80 106 33
6.39392 2.49622 2.73652 30 40 15
-2.15291 0.924041 -4.5417 46 64 16
3.95037 6.54947 -0.70189 52 65 21
-2.52325 -1.90944 -0.326481 47 67 14
5.12462 0.986128 -4.38656 80 97 29
-5.0955 2.53418 4.05754 92 102 29
6.24312 1.77656 3.74525 41 58 26
6.3169 6.57153 1.57558 44 56 18
3.36891 7.75586 -0.370243 68 83 24
5.39966 0.136906 -3.80157 91 98 28
6.0814 5.97057 3.61284 70 84 33
-4.90479 3.74976 4.59187 119 116 39
5.76892 5.98537 1.60634 96 101 35
6.75592 5.14739 2.95901 81 96 37
-8.99428 21.807 -2.75562 102 98 87
4.95117 0.330274 -4.2458 77 93 30
5.34712 -0.0541483 -4.56718 87 102 33
-0.103612 -1.4151 4.83857 69 77 36
5.71713 5.48878 1.6076 83 96 40
5.08475 5.97193 1.17996 76 92 30
-5.1044 -3.45464 5.64981 42 58 19
5.20607 0.430747 -4.62805 79 97 35
-3.70578 20.159 -5.37079 83 83 75
-7.90667 19.3365 -5.3105 107 107 97
2.55022 9.6176 9.50665 83 102 38
6.352 9.05285 5.04357 130 147 45
6.60421 9.09857 5.01231 120 140 41
5.01483 6.67464 2.95904 167 164 159
-7.53095 1.72262 3.57454 98 106 33
5.0988 6.19654 2.70565 201 203 182
3.20075 7.71051 -1.97593 233 241 218
1.72031 7.16278 -2.37203 188 200 164
2.11888 7.37093 -2.34647 186 192 166
3.1511 5.02223 -1.11915 161 155 103
16.6251 20.0911 -0.389387 252 252 242
15.9115 20.2855 -0.770208 235 232 225
-7.03806 0.191415 5.55849 186 183 132
2.19594 7.50382 -2.78183 168 168 158
4.93034 5.86656 2.90993 133 136 115
1.40937 6.77903 -2.56683 191 184 176
4.97297 6.92758 0.0931434 183 177 165
-4.72141 -4.38824 4.37995 47 61 35
-7.79732 -1.53514 4.41295 105 120 65
-7.14834 -1.96142 2.15923 130 125 57
0.547559 1.96439 -1.14065 91 109 59
-8.00956 -1.60273 4.21244 101 116 59
-2.66525 4.65242 9.72247 141 137 108
7.33116 6.66023 6.13805 86 92 44
7.29515 6.40792 6.3822 109 119 58
-4.5049 7.02138 6.41599 128 123 83
1.35318 7.20929 -1.9344 72 92 43
3.69899 6.95228 -0.173759 86 97 39
3.05404 8.04299 -1.49403 72 79 35
4.55364 8.76195 1.94952 80 87 43
-7.08212 -0.16201 5.27339 74 88 35
1.73998 2.01598 -1.1107 84 100 53
-8.58995 -1.36254 4.08539 74 95 38
3.3357 8.05103 -0.563216 66 80 29
3.56627 7.83841 -1.67438 75 88 45
-8.53556 -1.5341 4.36308 80 93 47
2.15023 2.08903 -1.09194 95 109 56
-7.10388 -0.293354 0.274064 77 100 32
-7.42828 -0.536135 1.01176 100 113 43
-7.04284 2.00696 3.51905 93 92 38
4.05169 8.49935 1.56099 75 87 39
-4.27023 -4.68633 5.05752 60 70 45
5.15163 0.213282 -4.91093 83 103 34
-2.89466 -0.874895 -5.51178 93 109 62
2.57399 -4.25508 -4.82196 80 95 56
2.37928 -5.29169 -4.45274 90 117 38
-2.15565 1.36943 -4.51602 79 84 54
-0.688427 -6.2818 -4.53584 147 152 111
7.02285 2.15798 2.85159 68 83 50
4.12118 -2.76007 -4.94656 88 102 66
6.02381 2.52259 2.83436 47 64 32
4.39758 -3.29398 -6.14689 68 83 44
0.863421 -6.29495 -1.71765 87 106 60
0.41071 -7.46873 -1.10986 197 199 162
2.3684 -6.78333 0.778568 103 115 69
-2.13446 0.249709 -3.52372 76 86 33
-0.165317 -0.165091 -4.02294 89 86 33
-5.88791 5.85251 7.93292 150 147 102
4.91225 -2.06237 -5.51826 71 85 52
-1.80389 -8.11124 -0.109408 190 185 153
5.35911 5.53496 1.1992 74 83 38
-24.1476 12.599 -0.0120553 139 136 127
6.53503 1.77104 2.82465 50 69 37
6.82732 1.87995 2.59158 50 67 35
6.17581 5.4768 2.96994 104 108 49
1.7075 -6.08929 -1.96538 80 97 53
5.86298 -0.0735689 -5.17398 94 107 37
6.96819 2.06031 3.94928 67 81 46
5.68888 2.26336 3.14514 45 62 28
4.50565 -1.02795 -4.68873 60 76 39
-27.9625 10.8971 0.543674 124 124 116
2.04048 -5.13739 -4.60468 75 94 49
4.69006 -0.821025 -4.93104 74 89 48
0.775571 1.45605 6.48016 127 130 73
2.35442 -5.07182 -5.10764 65 81 45
3.80269 -0.544911 -4.34261 65 83 33
-2.05634 0.974672 -4.09899 66 88 24
-1.63736 0.771512 -3.98234 70 89 33
3.48299 -3.39105 -5.4893 73 89 50
7.22124 1.83317 3.88972 89 105 60
2.20061 -5.46085 -4.46736 71 97 34
7.64157 5.2962 8.18289 118 131 52
6.18739 1.82586 2.10892 53 75 37
-0.0828926 -6.40243 3.41362 78 83 42
1.11479 -6.73038 -0.674865 52 70 28
-1.84279 1.05744 -4.42641 61 82 25
6.22985 5.12857 3.33952 84 99 44
6.34022 5.13267 3.92826 91 105 44
3.69026 -2.9599 -5.15036 51 68 36
5.63024 0.372558 -3.89817 82 93 33
3.67242 -3.10969 -5.27538 54 71 39
5.22446 5.46581 1.60462 63 79 40
6.62377 1.56705 3.88499 108 120 54
4.69991 5.16399 1.48337 47 58 28
-0.0195778 -6.71388 3.35839 75 82 38
3.38622 -0.174847 -4.09233 77 91 38
5.51332 5.26666 1.87996 69 80 37
-21.0743 12.7295 -0.747861 136 134 121
-0.106332 -5.57491 -5.13381 86 107 50
3.71217 -3.31179 -5.24015 70 85 54
5.57451 -0.572831 -4.42323 93 111 35
1.90477 -6.28135 1.55282 81 92 34
5.16655 5.24682 1.71535 50 62 26
-1.09352 2.18679 -2.8867 78 101 29
5.72745 5.11924 4.51602 76 92 45
-4.475 3.83218 4.39842 107 119 47
6.84713 1.96393 3.2442 48 65 33
6.29943 0.247743 -4.80734 80 96 31
6.12893 0.347309 -5.05562 75 93 31
5.30587 -0.408101 -4.52193 78 97 31
6.53317 2.14164 2.7194 30 40 15
3.54948 -3.183 -5.16602 53 70 38
4.84257 5.16356 1.19973 47 61 26
5.52317 -0.989741 -5.36747 45 62 26
8.05661 6.25127 6.12155 98 110 28
-4.56645 3.82494 4.58629 97 110 38
4.9274 5.07307 1.38197 41 55 20
3.65861 -4.15676 -6.10633 108 122 73
5.5889 -0.749044 -4.65048 76 97 30
1.77032 -5.76658 1.68653 77 86 39
5.15035 -2.43628 -5.01372 91 102 68
0.0930084 -1.25783 3.39219 112 120 69
5.20409 -2.31509 -5.62661 86 100 64
0.136118 0.30019 -4.09229 96 98 33
1.63902 -1.31775 -4.63594 123 124 93
4.95874 4.80489 1.37816 78 89 49
5.72975 5.34437 4.99057 186 186 134
-1.03111 1.65846 -3.56099 87 95 38
3.58559 -6.24727 -0.779206 101 114 70
3.45051 -3.99637 -5.87689 100 112 72
2.61185 -5.78064 -2.69587 80 99 53
5.71831 -0.590308 -4.36417 125 141 52
5.65374 -0.607081 -4.31418 132 151 62
2.75476 -3.37468 -7.02956 70 90 37
0.825856 -7.59219 0.772193 95 115 28
3.95573 -4.31662 -5.70317 108 121 77
3.65187 -3.99339 -3.98331 79 90 56
5.58779 -0.680312 -4.43775 125 144 55
2.9914 -4.58318 -3.51794 92 109 65
3.88414 -3.38946 -4.29492 89 101 61
-1.51993 1.0003 -4.14599 68 90 26
2.88117 -5.19542 -3.0494 71 90 44
2.22868 -6.25647 -2.56729 89 109 58
-2.43483 -1.01443 -5.40618 88 104 59
4.99617 -2.49031 -5.14919 89 101 63
5.19429 -0.831405 -4.98733 72 92 39
1.90604 -5.57529 -5.38431 163 166 121
2.15275 -5.91554 -1.64933 80 101 44
2.7381 -5.57413 -3.23866 87 106 60
4.57449 -3.01481 -5.31484 80 92 54
5.67014 5.12914 2.74302 73 91 43
-1.23405 -7.48159 -0.971757 168 164 119
4.48533 -2.76315 -4.7884 101 116 75
2.83425 1.26189 -1.27236 158 161 92
2.33982 -3.24723 -6.88101 61 79 31
-3.94586 3.98643 4.27387 106 116 47
2.54806 -5.20301 -4.72378 115 138 70
2.46236 -5.99288 -2.05321 66 86 37
1.40745 -7.54912 2.85066 130 128 90
3.5207 -3.41157 -6.10528 92 108 61
5.44633 -0.625873 -4.76522 109 128 47
2.88371 -5.10067 -3.07201 77 95 55
7.16704 1.95932 4.49328 172 171 115
-0.874476 0.47763 3.53477 115 115 63
2.94135 -5.22342 -3.32637 88 107 61
0.299966 -0.697673 3.5984 94 97 54
3.68008 -6.19921 -0.112998 95 111 64
4.51902 -2.70574 -5.32916 99 113 77
3.20165 -6.62002 -0.0763137 113 125 77
1.47481 -5.51797 1.61118 77 75 36
1.45912 -7.39198 -1.14197 180 174 140
3.89086 -6.0061 -0.110264 135 147 99
-5.54237 5.40047 8.7883 151 147 102
-2.96459 -0.763949 -5.14593 65 83 31
2.89606 -3.00464 -6.89395 60 77 32
1.80733 -6.81664 -1.47124 99 115 50
2.7947 -4.54892 -3.56959 86 101 62
1.30458 -5.36785 -5.74616 127 141 105
-25.3841 12.6494 -0.0698278 115 115 105
4.21455 -3.30908 -4.8314 66 79 49
3.61058 -6.36209 -0.122121 102 111 66
1.98189 -5.53742 -5.38105 178 184 138
2.73548 -4.8673 -5.70673 90 108 56
5.20887 5.37746 1.695 70 86 47
4.28112 -2.80401 -6.53538 73 89 50
4.65797 -2.22129 -5.16482 60 73 45
3.59196 -4.45646 -5.80034 95 115 64
-1.53553 3.16648 6.19861 69 69 33
0.510093 -8.55039 1.88253 159 153 117
0.304249 -0.93664 3.70847 100 97 52
3.63367 -0.75688 -4.71774 58 78 29
-1.15655 0.75752 -4.4531 75 95 36
5.14625 -0.016737 -4.71046 98 113 44
-5.94286 5.57158 8.71556 128 124 77
5.07547 5.3091 1.26646 58 74 35
4.36979 -2.31611 -5.74563 57 73 44
-18.7333 13.8761 -1.49559 141 141 133
2.58786 -5.41099 -3.12575 77 96 50
-2.53795 -0.27083 -5.86955 83 107 29
-24.4365 12.0843 0.257802 149 147 135
4.11999 -3.83764 -4.40205 94 105 73
5.73344 -0.418276 -4.36168 106 118 42
2.64108 -4.04447 -3.211 39 52 22
-5.08113 5.9138 8.0636 159 154 114
-0.0496036 0.312739 3.30925 105 112 68
3.52058 -4.75322 -4.76821 70 90 41
4.47855 -2.59225 -5.45357 80 93 63
4.73885 -2.36777 -6.27774 48 66 28
4.95362 4.98625 2.49127 56 69 39
0.939839 -4.55861 -6.71639 92 110 58
5.93016 0.688839 -4.91434 91 107 34
2.17901 -4.18638 -2.13155 38 49 19
6.07326 5.11097 3.23681 83 99 54
4.87091 -0.949443 -4.77106 78 96 54
-0.508654 0.375488 5.44977 72 92 41
1.81427 -5.89755 -2.31282 67 86 41
4.97556 4.17794 5.40362 97 105 46
6.5122 1.68496 3.58406 83 95 55
1.84014 -3.937 -2.31684 39 52 22
-2.03947 0.631172 -4.19917 70 84 31
5.33424 -0.423215 -4.87069 90 109 43
5.49947 4.48948 5.15973 77 82 42
1.66808 3.58281 5.47786 91 103 31
5.65844 -0.532712 -4.47254 111 129 47
-1.69248 1.15796 -4.86718 55 68 25
4.41763 -2.76588 -5.53055 67 84 52
4.59465 -2.26568 -5.25511 78 91 61
5.6836 -0.362003 -4.49801 107 126 45
5.63352 -0.367576 -4.45623 106 123 45
5.7906 0.882769 -4.79627 80 100 31
5.70923 1.1856 -4.86152 116 118 34
-0.737485 0.479114 3.66629 79 86 42
-1.91053 0.964147 -4.86382 66 86 33
4.58968 5.01231 1.4386 48 59 29
-0.299401 1.08353 3.62614 63 63 25
5.18171 -0.860822 -5.01489 77 95 45
3.60078 -6.38287 -0.71659 98 112 63
-2.59502 -0.880221 -4.91493 71 91 38
4.69063 -0.683659 -4.83802 74 91 46
-2.96825 -0.78623 -5.48916 72 92 43
4.79938 -2.51573 -6.28036 43 60 24
4.96927 5.17693 1.89029 54 68 33
-1.42435 0.711008 -5.16584 88 111 39
5.57312 -0.414658 -4.61384 85 104 38
3.89282 -4.06858 -6.01851 95 110 67
-1.45945 -0.930444 -4.91641 86 100 47
4.60895 5.11492 1.45587 45 56 26
3.31295 -2.98427 -6.32832 65 79 43
4.70901 0.011723 -4.87245 82 97 40
0.332808 0.152752 4.37013 67 92 27
4.33762 -2.5979 -6.72383 77 96 51
6.45029 2.54798 2.99931 33 43 16
5.07924 4.10079 5.28435 105 108 51
3.37091 -4.95949 -5.0385 78 106 31
0.827967 -7.62503 -0.341298 86 109 27
-2.81848 -0.50791 -5.60164 65 85 34
2.57452 -7.32406 -1.12365 96 116 31
5.61667 0.209592 -4.79325 83 99 34
5.87171 0.291418 -4.46973 81 95 33
-2.53509 -0.745638 -4.96895 56 76 27
6.56657 1.73105 4.23721 83 100 46
5.02571 2.02654 2.69071 53 70 34
2.59744 -5.56078 -2.87188 69 87 45
-0.0161322 0.00750893 3.70755 95 102 51
1.95881 1.51253 5.62616 130 132 69
-6.80516 -1.35458 4.57261 85 98 42
-1.87481 0.826848 -4.49109 63 82 27
3.68301 -6.11802 -0.463387 82 98 53
5.56955 2.10768 2.00776 51 68 32
-3.19525 4.17891 -0.901311 98 110 44
3.87167 -4.05947 -6.07558 105 120 77
5.8227 -0.227426 -4.20412 79 95 32
6.18522 2.33326 2.83982 34 50 24
5.96969 0.164916 -5.10524 86 103 33
0.868938 -1.23064 -4.38598 44 59 16
2.65073 -3.32929 -2.39185 53 67 32
5.79137 0.466052 -4.26809 86 98 36
5.40191 0.714714 -4.68513 88 107 28
3.63191 -5.01756 -5.54658 71 97 34
-1.86636 -0.926681 -5.04924 80 97 43
4.92507 -2.19509 -4.94659 42 56 31
6.41525 0.0314957 -4.84968 83 100 32
5.4341 -2.19138 -5.84329 73 87 52
6.13774 2.53068 2.5406 44 61 29
1.42885 -1.32675 -4.92093 32 44 8
5.99954 1.93738 2.95678 35 52 16
5.33952 0.674615 -4.52565 86 103 33
-18.2177 13.8306 -1.7712 131 130 125
-27.5516 11.3832 0.887078 125 125 115
1.64763 -3.64942 -1.74758 36 51 18
-2.27809 -0.42463 -6.20381 69 89 36
5.0658 -0.975647 -4.84672 58 81 35
0.523131 -2.21299 -6.4739 51 62 30
4.16727 -3.12383 -4.58581 60 74 39
4.84826 -0.924289 -4.99175 52 70 32
-1.35527 1.78862 -5.15238 62 79 24
0.431924 -2.17213 -6.49007 61 78 34
-1.51999 0.675159 -5.17519 83 107 31
-23.4895 12.0889 -0.107798 123 123 111
-1.52709 0.781868 -5.29513 83 107 33
-1.99834 0.726914 -4.38946 68 86 28
1.542 3.40377 5.33556 81 93 27
-6.89546 1.95475 4.99821 112 110 51
3.21661 7.8609 -1.58387 211 216 196
1.47879 5.54368 -0.0156972 180 179 174
3.17437 7.68752 -1.98479 198 208 174
-7.23797 1.42463 4.29224 69 78 33
-3.65883 4.52077 -0.474619 236 227 220
-8.60569 -1.59237 4.08894 102 117 60
2.13793 8.96909 -1.58565 175 173 158
-8.66244 -2.38305 3.16705 85 92 59
-5.90285 -4.5156 3.95948 47 61 35
15.2238 21.1964 -1.63039 222 214 203
-6.97812 2.01996 4.14303 70 77 26
3.72152 7.22723 -0.315754 71 84 40
-6.2738 -4.61931 3.56963 61 72 40
-7.86594 -0.506045 2.98252 83 94 38
-2.54195 4.60932 9.83993 139 135 106
-5.27763 -4.34678 4.63078 67 82 51
-4.92256 -4.00099 4.48208 36 50 14
1.48721 2.14195 -0.979799 74 91 46
-5.54503 -5.06115 4.20375 47 60 32
-0.631826 -1.1665 4.20802 46 63 31
2.94894 7.37833 -1.78068 88 95 64
3.21356 7.67896 -1.78645 70 88 40
-6.95827 1.9485 4.02769 80 91 31
-8.60332 -1.1477 4.01132 87 109 45
1.36782 2.02144 -0.837135 68 85 40
-7.30816 1.74177 4.05742 65 74 27
-7.31247 -0.430855 2.50713 71 83 35
-6.63942 2.26423 3.41976 71 79 38
-8.01323 1.23198 4.06047 74 82 35
-8.31389 -0.354478 3.38292 63 83 32
6.11933 9.71234 4.44045 78 96 36
3.09972 -2.20748 -3.76772 189 183 183
-6.65487 -4.28213 1.60112 91 100 35
-7.37711 -4.67235 1.03693 121 124 43
-0.806346 -5.126 -5.26312 176 180 145
4.93538 5.44422 2.17444 201 210 157
-4.21404 -4.97475 -1.44316 210 210 174
4.7964 1.83033 3.00784 97 116 88
5.50188 8.34902 2.30133 106 112 42
-1.21607 -5.52458 -5.81748 157 179 94
-0.302799 -0.499114 4.07384 190 184 170
-1.8643 0.356564 -4.36374 88 108 37
0.149478 -1.91953 -2.22671 78 97 31
2.61397 0.217715 -3.92892 201 194 166
-1.29962 -5.64169 -6.49491 131 154 72
3.06213 -3.05396 -6.23123 111 123 85
2.96209 -3.5288 -6.07095 118 135 90
2.98489 -4.59225 -5.17594 125 141 79
5.81686 2.29693 3.9191 76 92 55
-4.30328 -4.95264 -1.16513 164 161 120
-4.46617 -4.85385 -1.04834 102 115 36
3.91429 7.09191 -0.65456 105 116 58
-2.11653 -4.96882 -5.8242 126 133 55
3.42526 8.40624 -1.99228 86 107 38
-20.2517 14.2355 -1.42168 127 125 128
5.37112 5.41991 1.32121 87 105 53
-3.17143 4.21074 -0.957565 134 140 70
1.22843 -1.85993 -2.81607 107 104 71
-22.6645 13.4721 -0.685457 123 123 125
-20.4466 13.8677 -1.62352 136 135 133
4.88533 0.971829 -4.83308 107 133 46
-1.53687 -5.467 -5.19235 94 118 34
-1.55359 -5.27757 -6.7706 108 133 41
3.27296 0.133503 -4.46441 107 111 50
2.81747 0.544129 -4.08431 87 87 51
-17.1465 14.5394 -2.06166 145 144 142
4.87568 9.98989 7.03624 94 105 37
4.42517 -2.3374 -5.44724 87 104 70
7.68003 6.94998 6.46441 120 128 42
-1.32731 0.360088 -3.21999 91 100 45
8.52951 7.49618 8.32303 119 125 37
4.71456 0.394727 -4.8053 107 131 45
-4.83961 -6.29142 -0.559456 77 108 30
5.17382 -0.412063 -4.83607 105 128 48
-17.0718 14.8976 -1.94835 154 153 149
5.61049 -0.433531 -4.55801 117 134 54
5.29493 1.95589 2.64163 58 80 44
7.10819 5.80548 8.21616 122 137 44
2.24927 8.42213 -2.51139 79 101 39
6.16952 8.44023 4.63939 114 126 54
2.81759 8.33567 -1.69119 90 111 44
-5.77326 -5.01291 -1.45533 87 115 40
5.22775 -0.0471152 -4.69542 114 129 48
-1.24748 -0.0408706 -3.54501 81 104 34
-19.5227 13.8501 -1.24253 160 159 157
-5.8966 -5.80057 -0.941004 80 100 49
-0.0353822 -2.75386 -6.39791 50 67 33
4.91519 0.524193 -4.80205 111 134 44
-3.22966 -0.775657 -4.67432 66 86 35
1.36612 7.89868 -2.11412 87 114 45
5.40989 0.560152 -4.67418 101 123 38
2.76854 8.16267 -2.17351 76 103 34
-5.49941 -5.43551 3.65323 99 126 31
-25.2427 12.2269 0.638144 138 137 133
-2.30996 0.303463 -4.27136 98 122 36
1.48065 8.21528 -2.27144 82 112 38
3.92368 7.67341 -1.12978 78 100 36
2.42094 7.67231 -1.96734 74 99 31
6.77859 8.64281 5.88425 95 111 36
2.97248 7.60949 -2.06823 86 114 37
2.64082 7.65749 -2.23708 82 114 31
-6.45843 1.88434 4.14004 87 100 31
-26.4613 12.2278 1.26904 149 146 141
-2.77447 -0.469378 -4.51343 81 104 36
-2.10322 0.665316 -4.33052 82 103 34
-2.55269 1.40599 -4.59662 82 110 35
-21.2934 13.5204 -0.58466 142 140 141
7.65877 6.03739 6.11474 130 137 44
8.47241 6.90367 7.6087 112 120 35
7.51747 6.9649 5.85459 111 119 34
7.27322 8.27626 8.02116 113 130 50
7.96576 6.84546 6.66777 104 114 28
8.2481 6.92054 7.54257 106 104 29
8.71252 7.10892 8.83242 103 110 40
8.44269 7.57254 7.8854 87 90 23
8.54199 7.4118 8.1487 119 125 37
3.19151 -0.861355 -3.92776 82 104 40
6.49061 6.67061 0.774417 62 78 31
-5.35642 -6.24079 3.69166 115 122 68
-5.56898 -6.07719 2.83248 109 121 55
-4.06208 0.332283 5.038 129 126 73
-6.9046 -1.90179 2.04604 125 129 44
0.493692 -6.84076 2.88664 198 194 183
1.77737 4.41447 1.36581 182 179 144
-3.68169 -1.51964 -2.03797 73 82 27
-4.62312 -5.85362 1.62249 68 81 38
-7.44418 -1.0358 4.00677 193 200 148
-5.51575 -6.67709 -1.20768 153 149 86
6.65948 3.06902 5.53777 184 179 173
-4.07778 -6.30925 0.208556 111 124 44
5.33463 7.85309 13.1238 191 185 137
-4.5381 -5.90875 2.89938 127 134 80
6.65058 8.1578 12.6788 188 193 135
-5.13499 -7.04265 1.42509 83 108 42
-5.90489 -5.51943 2.14897 73 91 31
-0.507767 20.0355 -6.28873 104 101 86
-3.26022 -7.70368 1.40589 137 153 108
1.72668 21.0333 -6.97431 96 93 74
-1.85936 1.75618 -3.2758 71 79 40
-4.60312 -8.71271 1.8941 88 104 57
-4.38403 -5.81855 1.91956 105 117 67
-1.68907 19.1369 -6.79473 99 96 89
-4.03378 -0.700016 -3.72652 81 102 27
-4.941 -6.06589 3.98684 103 112 59
-7.25807 -1.48049 3.43364 174 176 139
-1.11465 1.09242 4.82762 73 74 43
-4.89695 -6.17022 1.68732 83 92 49
-7.6106 -1.19589 5.08967 89 103 54
-6.69766 -5.33207 0.620137 89 111 47
-0.167446 24.4169 -3.52165 155 151 139
7.5721 9.04676 12.5557 196 189 137
6.56256 6.43834 7.52939 131 133 86
-7.47962 -0.590628 3.17646 95 112 41
-4.77131 -5.84671 3.41784 124 132 73
-4.71517 -5.98308 3.24106 119 116 73
-6.31085 -4.5085 -0.337504 78 103 37
-5.04853 -6.29761 0.181901 56 72 35
-1.1199 2.03308 5.65325 100 97 52
-5.53355 -6.5168 -1.23589 111 119 59
-8.11892 17.8951 -3.98912 92 94 73
-4.93956 -4.69208 4.68223 54 69 40
-1.31626 1.64818 -2.94954 78 77 49
-1.25018 0.574836 3.98963 68 74 40
-0.851327 -0.299606 2.34626 155 150 130
-5.06412 -6.8256 -0.0328384 107 127 66
-5.83506 -7.2746 -0.194266 86 105 60
-5.37502 -6.12779 2.90529 71 87 38
-5.46954 -5.47818 4.04557 56 68 30
-6.27729 -6.6277 -0.700672 81 104 48
-6.2421 -5.78081 -0.882719 74 94 41
-8.22961 -1.01148 3.56206 82 101 35
-0.843873 2.62128 -3.30051 94 104 43
-7.2359 -5.33183 1.49481 72 93 37
-5.69893 -6.88101 1.64651 63 80 36
-1.15401 1.01219 4.13536 59 64 32
-5.61635 -6.24711 0.0776315 55 70 41
-0.982589 -8.46188 2.70178 109 112 67
-7.82741 -1.92008 3.39933 110 125 58
-2.95308 -7.81008 1.56195 72 84 46
6.12418 7.7437 10.3164 80 104 46
-4.51235 -6.55443 1.29473 67 90 38
-4.758 -4.87029 4.82635 50 64 38
-5.95581 -5.98729 3.32563 88 104 57
-5.94405 -5.86652 3.56696 77 90 46
-4.69113 -6.27145 2.28423 76 89 43
-4.66809 -6.2606 2.28079 76 89 43
5.34561 7.32941 2.43355 64 72 31
-7.32958 0.812063 2.98239 89 108 42
-5.83461 -6.16576 0.137015 38 53 24
-2.74926 4.61543 7.3227 78 76 38
-2.65244 2.29814 -2.42846 88 92 57
-2.95819 -7.86126 1.67045 76 89 45
-6.06132 -6.09271 1.40967 59 77 37
-4.46367 -6.28587 0.96566 81 101 38
-6.01044 -7.27493 -0.170712 64 83 38
-5.50716 -6.06094 3.34969 105 120 65
-5.97878 -6.08542 3.49894 70 85 44
-5.78784 -6.92961 -0.284032 59 77 35
-5.42438 -6.67928 -0.0735326 67 83 44
-5.7283 -5.99745 0.0732772 37 50 22
-4.96063 -6.54382 1.02343 89 106 51
-5.80157 -6.5377 -1.42441 66 81 42
-8.35543 -1.5653 4.31642 90 108 50
-6.12529 -5.8457 3.59789 74 90 45
-5.5645 -5.88916 3.40167 81 97 52
-2.69221 18.9868 -6.21342 96 93 86
-7.20465 -5.49875 1.02706 73 96 40
-3.47354 -8.06504 1.72377 67 79 41
-4.98231 -6.69028 1.91838 65 77 41
-2.64302 -0.36544 -3.00115 43 55 19
-5.33661 -4.4765 4.92806 47 60 32
3.01163 24.9805 -4.16922 139 135 124
-5.17325 -4.48982 4.90244 52 64 40
-13.0595 15.904 -3.54583 76 77 69
-8.33113 -1.54987 3.92447 87 107 46
-6.03302 -7.13273 -0.196015 59 77 35
-3.33333 -7.00334 1.66143 37 47 22
-3.44465 -7.03487 1.69039 37 52 23
-5.8053 -5.27551 1.40292 55 60 20
-5.93383 -5.56373 0.195303 55 71 26
-6.64102 -5.50033 0.461541 77 99 37
-6.46092 -6.17694 1.46189 61 77 38
-4.65393 -6.10175 2.26775 96 108 58
-5.84033 -5.90435 0.864758 70 89 43
-4.05848 -7.37242 0.374245 69 87 37
-3.25764 -7.14056 0.235882 69 87 39
-5.89525 -6.51923 -0.97472 84 102 52
-3.51219 -7.21882 1.5935 37 52 21
-5.65549 -5.43579 -0.233764 38 53 14
-4.6584 -6.65833 1.50919 68 90 43
-6.74976 -6.28061 1.8703 70 85 44
-3.99907 -7.42254 0.397341 70 88 38
-5.35397 -6.14422 3.42808 117 120 67
-2.07668 5.02922 9.73947 107 105 67
-3.86874 -0.884634 -4.06747 50 67 25
-5.69872 17.6636 -5.09401 93 90 83
-3.03743 -7.1178 0.597839 50 67 25
-7.32014 -5.00027 1.05663 63 83 34
5.59254 8.69562 12.4942 100 116 53
-7.45618 -5.31918 1.24095 61 81 30
-6.54045 -5.17605 0.429571 77 96 40
-8.41548 -1.02605 3.83365 67 91 29
-4.97585 -6.01584 3.40295 112 115 60
-2.31701 -1.22858 -3.54979 71 93 31
-4.6291 -4.99081 4.77861 45 55 30
-7.08853 -2.03119 2.24555 94 107 37
-5.78642 -5.47878 -0.105381 39 53 17
-5.69383 -6.40808 0.436918 39 54 23
5.69596 8.621 2.56055 71 77 33
-7.51489 -0.788602 5.24715 68 86 38
-7.45434 -0.172451 2.96758 88 99 39
-5.16682 -6.25475 2.35266 88 104 55
-5.40314 -5.90699 0.358805 35 48 18
-7.48846 -4.82867 1.15369 55 71 32
-2.62303 -1.09266 -3.34772 51 68 24
5.17833 8.20737 12.5814 97 116 52
-4.10643 -8.00911 1.28259 55 73 33
-4.03674 -0.801507 -5.24013 71 92 36
-6.00634 -5.82421 3.66182 71 84 40
-6.58318 -6.34226 1.61286 63 81 41
-5.64692 -7.18199 -0.390359 62 81 35
-1.97006 3.40934 6.61422 57 58 27
5.03959 7.42608 11.4139 75 91 44
-6.40395 -5.84194 0.656814 72 89 35
-6.16098 -6.58747 -0.669126 66 85 39
-8.49095 -1.3129 3.9457 65 86 29
-6.74581 -5.5287 0.753862 72 90 42
-5.21123 -6.47155 0.423426 46 63 27
-6.10373 -6.45076 -0.6084 67 89 40
-7.04965 0.122554 2.69823 86 96 35
-3.33704 -7.96074 1.2461 79 99 46
-2.49301 -7.76869 1.72859 79 99 50
8.00217 5.70672 7.57666 74 88 29
-7.46371 -2.02252 2.23729 95 117 32
-7.29906 -1.52573 1.45617 91 117 30
6.89657 5.34823 7.75004 76 88 26
-4.90967 -6.03239 3.14471 112 119 67
-3.06607 -1.27767 -3.73539 78 94 32
-5.71149 18.5717 -5.58229 90 90 82
-4.90705 -5.97029 2.40548 153 170 115
-7.91907 -2.08088 3.70978 182 181 163
-2.98679 -2.15003 -2.93126 81 94 41
-6.91401 -5.56286 1.40011 78 99 42
-11.4689 15.9341 -3.40789 151 148 129
7.4312 7.97761 8.58476 190 184 124
-3.81804 -7.62489 1.88523 63 79 42
1.53175 2.24165 -1.3329 103 120 66
-1.14919 -0.245532 2.581 137 135 97
-3.73626 -0.934733 -3.89259 90 105 50
-2.01647 19.1595 -5.86917 101 98 81
-4.64787 -6.05255 2.5681 79 91 53
-1.29146 -0.297648 2.2972 196 189 170
-2.52692 -1.07835 -3.95322 65 81 34
-6.87424 -5.88731 1.43539 76 91 48
-5.53478 22.0581 -3.70663 107 106 88
-5.77365 -6.6017 -0.152862 63 80 44
-5.57461 -5.91161 3.58409 75 90 49
-6.1933 -6.75705 -0.232879 73 90 45
-0.461528 -0.477149 2.5612 73 75 38
-15.5687 14.4135 -2.19257 100 98 85
-3.39565 -6.45411 1.07034 68 89 33
-5.32363 -5.53623 3.96126 57 68 36
-13.6251 16.0343 -5.45366 49 50 55
-13.1545 15.9185 -3.34674 104 101 92
-10.7409 16.9492 -3.07054 79 76 59
-4.95696 -5.67947 4.11985 49 58 27
-3.19832 -7.52253 1.71253 68 86 48
-5.17554 -5.70021 3.99311 64 76 38
-5.16928 -5.92045 3.90429 77 88 48
-4.8664 -5.79221 4.03388 56 65 34
-5.09933 -6.57582 0.432188 74 93 47
-3.75321 3.28401 0.365489 118 119 53
-14.3463 14.9079 -2.54218 112 108 96
-5.76055 -6.17182 0.119495 43 57 31
-5.47002 -6.45218 0.120491 57 72 41
-5.55678 -6.49865 -0.0556684 60 76 40
-11.2882 16.5168 -2.85074 72 73 57
-8.6311 -1.53919 4.23664 68 88 35
-4.69833 -6.67092 0.15205 85 106 47
-5.53395 -5.9704 3.36395 86 102 55
-4.26762 -1.22561 -4.71269 87 108 51
0.232265 1.25002 6.41947 107 103 55
-4.64795 -5.09255 4.76217 43 53 29
-10.5826 16.9406 -3.08692 77 79 58
-6.7052 -4.77444 -0.513476 96 116 44
-10.8671 20.411 -2.07633 94 92 69
-4.33036 -1.0125 -4.58795 74 94 43
-0.751638 -7.94561 3.16068 89 98 51
-5.01211 -5.66046 0.194847 43 54 22
-7.28969 -0.693284 2.8001 82 92 39
-2.22852 5.20547 9.75384 130 125 95
-4.84354 -6.2285 1.63261 68 78 41
-11.1288 16.5631 -2.90723 84 81 64
-6.64466 -4.6316 -0.0728768 65 85 32
-8.14773 -0.424748 3.44382 69 91 29
6.51565 8.76152 12.4173 96 114 52
-16.3582 15.6137 -2.65301 106 102 93
-5.66403 -6.19427 -1.27077 76 96 45
-12.2417 16.1812 -3.50472 93 90 75
-6.07546 -5.98088 -1.04183 77 97 48
-4.90054 18.0472 -5.50644 91 88 79
-8.49165 16.8112 -3.85623 91 89 74
6.33355 21.904 -8.48786 103 99 87
-7.16523 -5.05399 0.728797 85 107 42
-8.48321 -1.09028 3.83355 67 91 29
-6.054 -6.12121 -0.664395 73 96 42
-5.92917 -6.41445 -0.0428517 40 57 25
-9.88928 16.3831 -4.20337 96 96 86
-6.18141 -5.27556 0.181272 64 84 31
-6.90019 -5.28044 0.684898 73 93 42
-8.35551 -1.07142 4.38995 70 91 35
-6.74692 -4.61843 -0.474682 92 104 42
-6.48732 -6.57761 -0.703029 71 91 40
-12.2123 15.836 -2.96972 95 92 77
-10.4353 16.6404 -3.26654 84 81 64
-5.73831 -5.34204 -0.710942 64 76 28
-1.92816 19.1375 -6.28505 102 100 85
-4.33675 -0.804809 -4.23102 52 69 33
-2.53755 19.0793 -6.22119 91 88 79
-3.90238 18.6056 -5.8828 86 86 76
-12.6016 16.3236 -3.65035 84 81 72
-7.45558 -0.48187 2.99337 74 92 32
-6.88534 17.3245 -4.89742 81 78 69
-4.68248 -6.65371 1.54252 58 74 35
-5.80177 -5.90186 2.17722 58 63 31
-4.71768 -5.84928 3.19868 119 124 70
-4.56463 -6.26185 2.16818 84 97 43
-6.00535 -5.35745 1.48645 62 68 24
-5.94033 -5.58246 1.76463 80 98 36
-7.11556 -5.66437 1.41799 63 78 35
-3.83846 -7.0781 1.22112 38 54 18
-4.95264 -6.71171 -0.00631772 88 105 50
-4.51666 -6.43071 0.940811 88 106 44
-5.83861 -6.36593 2.78628 88 110 45
-7.00352 -0.363288 2.13773 204 203 172
-12.2313 16.0585 -3.65697 85 83 71
-2.11457 5.05475 9.39338 133 130 97
-2.80523 -0.894222 -4.75893 85 98 54
8.67704 7.57935 8.19582 86 93 39
-11.7259 16.1469 -3.39813 133 130 113
-5.0102 -6.3382 2.09423 93 101 60
-9.96618 17.1544 -3.31244 82 79 64
-5.25849 -6.24658 1.8851 73 83 46
-5.05768 -5.99781 3.76674 116 125 72
-7.25675 15.1934 -4.4301 107 104 85
-10.7651 17.3766 -4.42858 71 71 61
-1.13387 19.8995 -5.91622 84 81 66
