ply
format ascii 1.0
comment Created by Open3D
element vertex 1324
property double x
property double y
property double z
property uchar red
property uchar green
property uchar blue
end_header
-9.40164 9.37968 10.1401 195 161 116
-7.68185 18.63 -3.13853 85 77 74
5.23389 3.85505 -2.7088 69 87 39
-0.457937 0.6301 -2.32959 117 79 30
15.6943 20.4723 -4.4293 175 142 89
5.12652 5.58778 -0.495588 81 96 41
15.4878 20.0898 -4.75779 178 147 93
14.5153 20.626 -6.20949 177 143 97
-1.69476 5.39371 2.76823 121 55 39
-6.25939 4.54194 5.89863 130 33 17
-3.39822 8.27182 3.9841 170 139 95
-6.7942 9.37346 9.93219 167 138 98
-11.2845 12.5457 -5.8464 93 92 87
0.273762 1.47275 -1.50534 107 69 24
-0.663729 1.93682 -0.97301 133 94 39
-6.4696 -0.716268 1.08822 73 87 38
15.2975 19.1851 -3.94508 179 149 95
-2.6066 4.80169 6.21774 137 30 22
7.26722 6.7264 2.21067 76 91 34
-4.7454 5.21301 1.98003 128 39 23
-9.98239 7.32813 11.3918 210 177 134
-7.35917 9.44549 8.63735 163 134 94
6.63856 7.08382 2.44486 73 88 31
-9.18225 7.74177 12.1635 196 162 116
15.4097 20.3843 -4.67564 170 138 81
-6.0677 7.27456 10.4522 149 49 25
-5.90149 7.03323 4.56249 167 144 138
-4.96692 4.25615 2.29719 118 21 14
-4.58056 9.05371 5.94503 119 33 20
-4.46391 5.73391 2.83549 118 37 20
12.7788 21.7734 -5.67243 194 170 122
-2.81178 10.1227 6.94721 117 36 19
-1.52101 10.0896 5.32809 167 136 89
-3.20524 11.7863 6.97761 140 115 74
-5.87903 4.82612 4.19502 133 33 18
-3.45413 -0.539934 7.987 106 21 16
-2.98328 10.7032 3.6852 171 140 94
-9.26499 7.43627 11.6151 194 160 114
-12.2393 12.373 -5.59999 86 87 73
-7.96239 10.0932 7.79901 180 149 105
12.0994 18.8886 -1.46434 204 177 134
-7.48864 7.11166 13.7381 203 168 128
-6.36002 7.66066 10.934 115 99 76
-6.49597 7.46793 9.99274 133 58 37
-6.39975 7.60509 11.0984 126 104 81
-5.53819 6.89716 11.9765 130 102 65
-6.15552 7.95423 11.2022 110 91 74
-6.95242 -4.10107 2.44492 74 98 36
-7.70712 -4.49944 1.8064 94 115 48
-6.97278 -3.17044 1.45254 80 103 35
-6.88312 -3.6571 0.590611 70 90 31
-6.13722 -2.66281 1.38507 100 107 37
-6.32242 -4.67847 -0.468016 102 123 48
-4.16317 -9.31204 1.35383 139 142 75
2.97181 -9.12326 -6.46393 129 146 78
2.61945 -3.14205 -5.35985 99 112 40
1.79839 -10.9921 -0.803651 124 125 57
2.06339 -3.53839 -5.3889 91 101 40
-4.03374 -9.51578 0.198884 111 126 57
1.60406 -1.31238 -4.39668 114 84 32
0.400288 -11.2827 1.11786 130 129 72
-10.4291 19.9272 -4.74933 115 107 86
2.46659 -7.72745 -3.3507 89 108 52
3.41858 -2.92309 -5.44311 84 76 29
1.93063 -8.15077 -3.90797 101 113 37
4.4539 -4.3864 -6.14716 110 113 42
0.688653 -11.9203 -0.325257 132 141 88
4.6144 -3.6471 -6.38787 104 115 36
-4.86905 -9.28157 0.905273 120 138 62
1.72748 -9.23427 -4.92949 92 117 49
1.43538 -11.3163 0.0159089 84 102 40
-4.24439 -9.43192 -2.73238 120 140 51
-1.1789 -10.7232 1.0046 106 126 57
2.40323 -11.4042 -2.28705 90 112 50
0.529501 -11.6932 -0.845998 121 135 74
-0.0465037 -11.0901 -1.71751 121 138 84
0.117449 -11.3764 -1.36499 129 144 89
-3.17292 -9.89737 -0.217331 109 129 70
-3.24096 -8.64388 1.90844 76 91 48
1.42249 -11.6023 -0.940872 94 115 56
-3.25054 -9.34872 0.499278 94 115 56
1.297 -9.53412 -4.31881 120 138 76
2.30385 -11.2737 -2.30862 100 122 58
0.957954 -11.5438 -1.21118 107 126 70
1.70417 -10.9235 -0.379974 98 114 52
2.8709 -7.76766 -6.30547 70 89 43
-0.0833405 -11.2752 -1.1465 123 132 69
3.72243 -7.36917 -6.14802 59 75 36
1.93739 -9.91317 -3.22345 69 88 43
-0.028971 -11.6232 -0.184881 121 138 83
-3.44248 -8.95183 1.97604 85 105 52
2.76592 -7.12973 -5.78996 72 84 46
2.79665 -7.53579 -7.78476 101 115 56
-0.347439 -9.00001 -7.46178 83 111 52
1.62775 -10.5112 0.288537 69 85 36
1.52532 -1.55896 -4.48259 99 82 52
-1.46072 -11.4803 -0.556094 127 138 82
0.0102904 -9.13389 -6.87724 85 113 62
2.1763 -8.74185 -4.14696 58 74 38
2.7569 -8.06948 -5.98932 60 72 34
1.67414 -10.675 0.110066 91 113 48
-1.8444 -11.2092 -0.4403 122 141 85
-3.00427 -8.57997 1.67742 61 76 45
2.12405 -11.4357 -1.6438 123 139 74
1.35944 -11.3499 -1.35581 101 112 54
-0.853519 -11.5519 -1.11495 161 174 121
-3.51671 -9.00578 1.75443 87 105 57
1.96176 -11.4915 -2.09566 123 138 73
5.00463 -5.59568 -6.36782 58 73 30
3.47547 -7.11776 -5.70623 62 74 36
1.6264 -9.55044 -4.20293 86 111 56
-3.93724 -9.66587 -3.78659 94 118 40
-0.78564 -11.5384 0.444774 99 120 53
-0.249641 -11.5333 0.855079 127 140 71
3.10085 -5.54378 -5.75239 74 81 47
1.44667 -10.6147 0.457208 62 80 38
2.62027 -10.4872 -0.345878 111 114 47
0.0470605 -11.6506 0.460164 147 143 82
4.43968 -5.66885 -6.03065 59 78 23
-0.421555 -11.2252 1.09425 123 133 72
1.68505 -11.0897 1.24881 105 119 57
0.535366 -9.0465 -5.57983 88 122 45
3.10873 -7.71391 -7.61611 95 112 60
2.99548 -7.99766 -6.56945 72 89 47
2.41744 -7.11239 -5.08582 50 64 29
1.40451 -9.09381 -5.46327 71 95 45
1.51284 -11.4298 -1.00683 97 107 46
-0.526269 -11.034 -1.52172 124 141 86
1.91565 -11.3814 -1.77617 113 133 64
1.55157 -9.44923 -4.47352 74 101 48
0.804229 -8.58912 -7.17612 75 99 49
1.92503 -11.0437 -1.22139 99 110 50
-2.37661 -10.3463 -2.37018 136 150 63
-2.12869 -11.1296 -1.68119 105 129 77
0.804562 -11.5394 -1.17754 111 129 71
2.46707 -11.158 -1.75424 82 103 44
2.67053 -7.67927 -5.95214 57 69 31
-3.44488 -8.21617 2.21899 42 52 25
-0.803836 -8.55025 -8.78855 116 139 83
2.00883 -1.44048 -4.08513 116 117 41
-0.87061 -9.14108 -6.98859 82 109 54
-0.200093 -11.7434 -0.248401 104 126 62
-1.30115 -11.5331 -0.618019 138 148 88
1.62162 -11.1828 -1.54259 116 131 64
3.31709 -7.8265 -6.83526 94 109 70
1.73887 -11.3236 -0.939534 109 115 51
1.44734 -11.4702 -0.544622 75 97 50
3.06559 -1.64284 -4.13168 130 145 64
2.92465 -7.26471 -6.26195 50 68 28
-1.35363 -11.5524 -1.02666 116 131 74
2.2968 -1.30846 -4.67632 136 140 56
1.34493 -9.80719 -3.92374 96 120 58
1.70767 -11.5387 -0.781984 95 104 41
2.40232 -11.3688 -1.40378 93 114 49
1.80632 -10.4385 -0.395793 101 116 47
3.1151 -7.53846 -7.53146 101 119 67
-4.6285 -9.22317 1.07825 112 121 64
3.50703 -7.68537 -7.194 92 110 68
-0.11321 -8.83346 -7.38327 72 99 54
1.1424 -8.98991 -5.64251 72 98 50
1.28292 -9.1975 -5.53041 72 95 49
1.47018 -0.41159 -3.32725 115 133 47
1.7664 -11.4082 -0.893067 111 117 55
0.592203 -9.60302 -4.85723 86 115 48
1.85135 -1.7576 -4.51979 96 72 34
3.94082 -7.23807 -6.75352 69 83 47
-0.632527 -8.51326 -8.95947 112 135 83
-3.72765 -9.11852 1.79742 90 106 57
-0.754327 -11.4698 -1.2837 108 126 68
2.88342 -8.30711 -6.00815 56 74 32
1.79879 -9.23629 -4.43356 56 82 37
-1.06064 -11.4535 -1.38885 105 126 70
3.10755 -7.47875 -8.04428 93 112 48
-1.68141 -11.3926 -0.754933 107 125 65
2.71885 -11.1901 -2.12176 87 106 60
-0.510571 -9.17162 -7.70883 122 140 78
-0.780402 -11.6021 -0.293759 100 120 61
1.95188 -11.4252 -1.49619 107 127 56
1.84773 -11.2736 -1.53664 114 135 68
2.47428 -8.4815 -5.92482 105 130 64
-0.0611227 -11.3949 -1.02083 110 120 57
2.4786 -1.43268 -4.04919 119 126 48
2.36402 -7.76855 -5.53682 53 69 30
4.81991 -4.74101 -6.34626 44 62 20
-1.0186 -11.7076 -0.715292 140 145 87
-0.252408 -11.1581 -1.82944 93 116 62
1.63519 -10.954 -0.321179 90 105 48
-2.39722 -10.4578 -2.4298 126 149 61
1.32862 -9.49549 -4.4531 94 116 51
2.35422 -7.42872 -5.1786 55 67 29
-4.57525 -9.35457 0.479423 79 101 37
1.28858 -11.3868 -1.82026 104 127 59
-1.05171 -11.4387 -1.06231 124 136 74
-0.347955 -9.04501 -7.1491 77 107 57
2.21009 -8.36122 -5.74645 74 94 45
4.27947 -7.40155 -6.91274 59 74 43
-3.66131 -9.47025 0.0628907 88 107 52
2.57025 -10.2117 -0.224899 90 99 36
0.752842 -11.4771 0.576661 97 107 55
1.78796 -8.71082 -5.57683 103 111 54
0.759529 -11.5806 -1.12266 112 130 68
2.2761 -10.8052 -0.699269 127 145 63
2.01555 -1.44516 -4.18717 123 124 48
1.3288 -11.3315 -0.258571 59 76 32
-0.150124 -9.12338 -6.07489 96 124 65
-0.804089 -11.5008 -0.929271 129 136 69
4.5123 -7.04391 -6.98337 56 68 32
0.325124 -9.2633 -6.57658 75 104 50
0.845472 -11.3859 0.489388 88 90 43
1.58874 -11.6122 -2.38046 95 119 67
1.69256 -8.6318 -3.8399 41 59 21
1.14778 -9.72564 -4.65045 127 150 60
2.53234 -11.1606 -1.97558 68 92 42
1.55933 -9.93101 -4.25074 102 124 51
-4.76959 -9.05764 1.30359 124 126 61
2.32869 -10.2241 -0.248537 103 114 38
2.21366 -10.3142 -0.289497 108 120 44
3.01692 -10.2261 -0.439748 85 101 39
3.41934 17.7442 -9.23904 140 133 114
5.37645 -5.54533 -6.5327 53 68 35
2.12413 -10.8249 -0.575309 101 114 44
2.56508 -10.8512 -1.46093 71 91 38
1.95641 -11.3194 -1.46472 103 123 54
1.67261 -8.00822 -10.7337 183 138 71
-1.20358 -8.58288 -8.23396 110 126 63
2.09603 -11.4498 -1.95718 92 120 59
2.75207 -10.6081 -1.14641 66 82 33
-1.53069 -11.5097 -0.987448 114 132 70
1.70479 -8.5405 -4.47581 58 76 36
1.94309 -9.86264 0.204855 55 72 27
2.24207 -8.10395 -4.33051 42 59 25
3.21614 -7.54079 -5.95476 63 81 41
1.60778 -7.12304 -9.784 169 125 60
-2.07504 -9.20109 -4.20858 132 134 69
2.42607 -8.83058 -5.12553 91 108 53
3.2443 -1.38541 -4.26354 137 147 76
2.01816 -9.10564 -11.3829 187 142 77
3.86059 -7.36849 -6.85032 61 78 42
1.85631 -0.939849 -3.87373 118 137 45
2.35491 -11.4091 -2.15805 91 112 55
0.281483 -8.83358 -7.5007 69 98 52
2.0322 -11.3022 -1.57074 101 122 55
5.5232 -2.55309 -6.72413 119 125 37
3.34786 -7.65004 -5.4796 57 73 36
-3.99713 -9.30376 0.939751 97 113 40
1.46271 -11.3938 -1.95189 91 112 53
-4.92824 -9.32633 1.09296 114 134 62
1.47904 -7.39912 -9.82701 183 138 71
2.28422 -8.28521 -5.20049 77 97 46
2.21944 -7.90446 -5.5896 57 76 31
-4.26181 -9.26222 1.49567 143 142 85
0.440906 -11.4823 -1.25891 104 119 62
1.54092 -11.8061 -0.633899 80 100 49
2.1505 -8.79771 -4.0292 58 79 36
2.76407 -10.4487 -1.60428 43 59 23
0.574065 -9.31395 -5.05227 91 125 41
-0.875694 -11.6228 -0.41489 108 129 70
1.04491 -11.2008 0.756206 75 87 41
2.05351 -11.4364 -1.87988 94 116 54
-6.61409 19.204 -4.68122 120 110 98
-3.98737 -9.33388 1.8807 115 125 72
-7.42402 21.1479 -5.22677 130 120 110
4.991 -5.97619 -6.75 53 68 37
-3.35871 -8.35375 2.34694 48 60 24
1.67073 -9.1077 0.239083 55 71 22
2.34398 -9.59326 -11.7457 171 123 61
-3.66696 22.1595 -6.661 126 117 100
1.62568 -7.30679 -9.41111 174 130 65
1.5636 -1.11362 -3.25866 115 127 43
0.910217 -11.4829 0.454117 66 73 32
3.71258 18.2913 -9.35294 116 107 90
1.43572 -7.48979 -10.1709 183 138 73
3.01919 -10.0091 -0.449905 79 93 31
-4.02742 -8.48871 -2.85933 122 135 65
1.33161 -6.64438 -9.53571 164 120 57
3.74111 -4.36896 -5.70285 111 131 36
2.65915 -1.29904 -4.71415 143 153 56
-5.15666 -5.0319 2.10508 215 188 141
1.75039 -8.59993 -6.41458 103 117 55
1.02877 -7.19222 -8.57982 74 94 45
1.12171 -7.50815 -7.82967 98 115 60
1.24224 -9.11895 -5.26269 118 145 50
1.46919 -7.11584 -8.53555 118 129 69
-1.28145 -11.6709 -0.415019 110 128 70
1.8429 -8.22171 -7.03706 97 115 41
1.93786 -4.72446 -5.29217 89 92 45
4.6841 -5.77015 -6.63368 62 80 38
2.17047 -3.75896 -5.46535 102 108 48
-3.76692 -10.0803 -0.616744 109 141 58
3.6869 -7.49123 -6.7462 87 104 59
-3.12492 -7.53754 1.47427 118 127 38
2.85813 -2.30746 -5.38533 102 98 53
-3.91814 -9.8134 -0.42387 95 116 41
0.197105 -11.5614 -0.737163 106 120 61
3.3626 -7.29886 -5.69155 102 108 62
0.943634 -9.81588 -4.50394 165 142 64
2.64021 -10.7067 -2.03303 74 98 40
2.79572 -5.25861 -5.24895 108 99 60
2.50699 -8.0874 -4.22046 53 71 33
3.76647 -7.76811 -6.65176 99 112 66
-4.98539 -9.69135 0.943966 154 148 86
-2.7236 -8.45403 1.43488 104 124 37
1.8724 -11.5642 -1.96312 127 136 69
-2.49403 -10.9046 -0.68209 119 134 75
4.70354 -5.25887 -6.76741 74 94 45
0.846018 -11.3971 -1.25908 106 125 70
0.955605 -7.18161 -8.41917 119 137 79
-0.336661 -11.2266 -1.5805 118 135 81
-4.93623 -9.50266 -0.901862 80 105 40
1.36239 -11.0872 0.508755 78 94 45
-4.47782 -9.39138 0.27251 116 132 61
5.2218 -5.80614 -6.70375 68 79 47
3.14187 -2.37146 -5.76065 102 98 53
1.90277 -11.3754 -2.26953 115 126 68
-0.0460241 -9.49954 -5.99371 119 142 86
1.80976 -8.72292 -4.0933 59 78 33
-3.95022 -10.1207 -0.427457 95 121 48
5.30958 -4.98529 -6.89629 62 78 42
-4.40494 -10.1601 -2.29605 107 128 71
1.30228 15.2613 -8.62093 137 132 128
3.21588 -7.3236 -7.92828 103 123 72
-3.74994 -8.27942 2.69059 76 87 44
2.29377 -8.60159 -6.05354 68 88 39
2.2668 -8.53353 -6.09458 68 88 39
-1.2195 -11.4297 -1.24969 126 140 79
2.56187 -10.5839 -0.621981 100 115 48
4.15756 -7.42221 -6.94842 59 72 42
2.15033 -8.72177 -4.14539 52 70 30
4.12934 -6.83166 -6.2753 55 69 34
2.29508 -0.677651 -3.54514 116 138 53
-0.752047 -11.2043 -1.76191 112 133 76
0.642192 -9.14202 -6.83687 89 116 61
3.35153 -7.2066 -6.18305 59 75 39
2.16817 -8.29052 -5.61521 109 126 74
0.786345 -11.6605 0.666491 116 114 53
-4.15817 -9.96327 -2.71558 95 118 46
-5.72973 -9.17203 -1.01839 81 106 48
2.21432 -11.1555 -1.34963 96 115 49
-0.495724 -9.2187 -7.10791 78 107 51
1.256 -11.4175 -1.37495 99 114 57
-1.26021 -11.4808 -0.136507 97 118 61
0.767334 -8.09394 -7.17596 72 94 45
3.48536 -7.18309 -5.68015 61 76 37
2.19272 -9.83314 0.109628 85 100 35
4.0656 -6.33854 -6.01398 54 65 35
-3.46507 -9.05063 1.73215 84 104 55
1.31763 -11.4852 -1.949 103 124 59
-3.5141 -9.31946 0.217114 102 117 58
-5.1874 -8.96743 -1.07817 92 114 49
1.60982 -9.52454 -4.21694 82 102 53
3.48233 -7.48905 -6.29604 61 77 40
5.25298 -5.24644 -6.82157 60 74 41
0.492963 15.7367 -8.64321 135 132 127
1.18517 -11.1309 -1.43801 97 108 50
-0.770456 -11.312 0.640082 102 124 52
2.46148 -10.9074 -1.88066 79 100 44
3.1753 -5.32042 -5.16247 90 86 51
5.5148 -4.923 -6.81563 70 85 46
-1.46154 -8.60029 -8.31102 118 136 74
-4.0175 -10.4473 -2.41145 91 112 53
-4.24885 -10.1888 -2.4986 91 112 53
1.57333 -11.6176 -2.22258 101 125 63
4.12544 -6.80812 -5.98128 52 63 33
1.90158 -1.52779 -4.4124 125 95 41
-4.63382 -9.22918 1.10268 117 128 70
-1.47774 -8.41316 -8.06454 69 94 39
-3.63091 -9.42843 0.194915 104 120 58
-3.66789 -8.62493 2.23864 81 99 51
4.19293 -7.06285 -6.77152 58 76 36
3.59292 -6.50911 -5.91499 59 75 36
-0.022351 -8.9517 -7.80952 106 127 68
1.29281 -10.8921 0.203017 65 78 34
-3.50694 -8.19827 2.24274 51 60 29
-5.23875 -9.67673 -0.755197 74 103 39
0.0097107 -11.7732 0.350752 127 134 66
-0.259134 -11.6871 0.521686 115 126 58
-3.62831 -8.97909 1.5684 76 93 51
-0.789745 -8.52429 -8.66618 114 138 80
-4.45668 -9.51643 -3.14055 108 121 51
3.22011 -7.67254 -5.64908 76 92 53
-1.50193 -11.5104 -1.41765 104 125 68
1.13093 -6.81486 -8.58462 110 121 61
3.77192 -5.23415 -5.84451 68 88 29
-3.08857 -9.47177 0.00908112 76 96 45
4.77988 -4.41202 -6.14042 92 104 42
3.90425 -7.04608 -7.6826 79 97 57
-1.25006 -11.2196 -1.67941 107 126 70
-0.647336 -11.524 -0.944912 140 143 76
1.36957 -11.4977 -2.08528 96 118 54
1.87179 -10.224 -0.00707588 74 94 35
-4.98239 -9.31094 1.31354 125 140 73
0.0124782 -9.25098 -7.67791 110 133 65
1.84696 -7.81958 -6.79211 65 84 38
0.239499 -9.16796 -5.00057 87 119 44
-0.171203 -12.0344 0.253605 104 129 48
3.29615 -7.81001 -6.1771 56 67 37
0.520524 -9.1916 -6.54494 68 98 46
1.88131 -10.8757 -0.384931 95 111 48
-0.680565 -8.99304 -7.27525 78 107 49
-5.1341 -9.4015 1.08843 116 141 73
1.64963 -11.4399 -1.78841 132 148 85
-1.77886 -11.3112 -0.624058 120 135 80
1.95543 -11.1092 -1.21691 101 116 51
3.59122 -6.82636 -5.59502 54 66 28
0.311551 -9.29396 -6.94624 93 120 69
2.29887 -11.2266 -2.53657 73 97 45
-4.74717 13.8818 -6.99135 135 131 120
-1.04769 -11.2214 -1.58513 105 126 70
-1.08556 -11.4267 -0.101395 84 104 51
0.808795 -11.5495 -1.19374 110 125 68
2.59875 -8.09826 -6.33558 56 73 29
-0.214489 -11.7313 -0.259719 101 121 60
5.53509 -4.0541 -6.63137 95 100 34
-4.69004 -10.2124 -2.45625 97 121 61
-1.63584 -11.6554 -0.77967 109 129 68
-3.21383 -9.18785 0.471675 86 107 51
0.191097 -11.4826 -1.17822 103 123 72
2.4393 -1.8201 -4.49898 135 140 58
0.639899 -11.492 -1.30569 103 123 64
-0.291899 -11.7821 0.355771 115 133 59
4.84403 -6.04436 -6.83889 61 77 41
2.3645 -10.9829 -2.35887 77 101 51
3.82316 -7.0362 -6.17426 53 67 32
-3.05965 -8.05407 1.85638 56 68 28
1.14599 -10.9365 0.815885 87 97 45
4.067 -7.37606 -7.29771 55 72 40
1.11725 -8.98473 -5.63862 67 94 43
-0.100014 -11.6594 0.672651 134 135 67
2.84127 -7.28474 -5.17202 47 61 25
0.986847 -11.1324 0.78169 84 97 44
-4.55874 -9.93708 -2.82439 86 110 48
0.89944 -9.59598 -4.33177 137 142 76
-5.61187 -9.09882 -1.08419 91 111 58
0.723522 -11.91 0.252939 141 129 71
3.13359 -7.72165 -6.68483 73 90 54
2.38609 -11.3178 -1.92313 82 107 50
2.63506 -1.22864 -2.87228 85 109 35
1.46991 -8.29861 -6.90126 72 92 39
0.331483 -11.7387 0.192714 158 145 90
-3.94359 -9.27727 0.426683 106 119 63
3.9691 -7.35266 -7.27367 60 77 41
-4.42847 -9.18411 1.2401 141 142 84
1.2705 -8.98253 -5.49083 78 96 54
-0.826372 -11.4225 -1.28565 115 130 73
2.60409 -7.13175 -5.83652 50 62 24
-0.65488 -11.0736 -1.94201 109 128 82
-5.35604 -9.36604 1.18522 109 132 64
-0.446856 -10.9964 -1.7122 110 131 74
4.964 -5.77104 -7.21984 68 81 51
1.92077 -11.2122 -1.07184 107 118 52
2.65137 -10.3342 -1.47453 69 86 42
-0.538823 -11.4661 -1.16451 130 141 75
-3.64427 -8.05684 2.42607 57 66 35
1.70121 16.6229 -8.32091 97 95 72
3.33756 -7.32098 -6.30375 63 79 42
-0.593754 -8.81245 -7.27626 81 110 56
1.74469 -7.60082 -9.55518 173 129 64
1.68203 -9.24386 -4.59324 62 85 43
0.203961 -9.23792 -6.96903 83 110 59
-3.42211 -8.94039 0.234574 86 106 45
5.29105 -4.93079 -7.00781 63 76 46
0.166223 -9.47053 -4.88359 87 120 51
-4.67851 -10.0988 -2.52852 87 108 49
-1.32501 -8.73343 -8.03208 85 106 50
0.335443 -9.14188 -5.50576 86 121 41
1.72327 -11.4967 -2.1973 94 118 60
2.23325 -11.4872 -1.94347 94 117 63
0.669507 -11.8359 -0.136329 126 124 65
3.73637 -6.90279 -6.10135 52 63 33
-1.29803 -8.43693 -8.63958 103 123 64
0.210436 -9.18019 -6.54796 83 111 60
1.63875 -11.1016 -1.56964 116 133 63
1.4101 -11.1349 1.07526 93 105 55
3.40509 -7.81084 -6.27652 60 76 39
1.92041 -8.36724 -5.20073 67 86 40
1.31258 -7.90535 -7.2118 56 78 29
-4.05992 -9.13243 1.0571 95 114 50
1.53932 -11.0675 -0.39013 73 93 42
-0.155949 -9.23896 -5.56477 93 118 61
2.13355 -9.92886 0.0252211 72 91 35
4.75785 -4.67689 -6.35079 67 85 37
1.76198 -11.4253 -1.77787 111 134 66
5.45478 -5.35747 -6.41233 55 70 29
-0.30612 -10.9859 -1.89187 95 118 62
0.258792 -11.8245 0.62846 149 136 81
3.48721 -7.36059 -7.37311 85 103 61
0.372298 -11.7148 0.164607 151 136 81
3.53102 -7.26934 -6.15457 52 68 32
0.610109 -10.1944 -5.57434 93 122 64
2.05833 -9.36144 -11.5063 188 147 83
0.565865 -9.12747 -6.62917 59 88 34
1.85378 -8.96279 -11.7458 201 153 89
4.83955 -6.24788 -6.95562 58 75 41
3.17094 -7.83702 -7.0801 106 123 69
1.13686 -9.44428 -4.23676 100 125 57
4.36386 -2.70135 -6.52487 120 132 46
3.92801 -6.61425 -5.82864 49 60 30
1.5722 -11.0134 -0.577886 91 106 51
1.12112 -9.6902 -4.17328 130 141 65
-0.19971 -11.3314 -1.48182 121 136 79
-0.735146 -8.5817 -8.44951 98 120 58
3.05528 -7.66299 -7.27133 117 130 76
1.57903 -8.69807 -5.49305 79 96 41
0.876587 -9.87963 -4.24515 137 141 67
1.29683 -5.28674 -1.55859 119 113 79
1.0892 -11.3769 1.04575 85 94 47
1.07483 -9.03622 -5.12004 105 135 49
-3.33975 -9.03917 1.94331 83 103 52
1.8426 -8.13436 -10.3147 182 141 85
1.63937 -9.29312 -4.76678 74 103 39
-0.856018 -11.5825 -0.235883 93 114 57
1.57977 -9.73952 -3.91463 82 109 58
-4.13384 -9.18667 1.04458 120 131 65
-4.51999 -9.88786 0.10353 79 104 49
2.87334 -10.1518 -0.333859 79 92 38
1.24175 -11.7536 -0.730933 74 97 41
1.90766 -0.876535 -3.93935 117 134 42
0.212994 -11.4132 -1.33433 116 135 71
2.26103 17.6553 -8.72657 95 89 73
0.322037 -9.18084 -6.51878 76 105 49
-3.32186 -8.69573 2.45725 58 68 33
4.34724 -3.74565 -6.32325 100 117 39
2.38981 -1.4155 -4.50036 133 130 53
-1.01307 -11.6953 -0.564248 128 142 81
-3.31579 -8.61669 1.6187 53 70 36
2.9472 -8.17196 -6.81105 78 98 49
0.486514 -11.4818 0.839721 110 118 59
-0.401101 -11.7535 -0.0438051 97 118 61
-0.245556 -9.21336 -7.37275 83 111 52
0.959521 -11.2765 0.67651 100 108 57
1.1058 -9.65807 -4.67114 121 145 61
-5.06694 -9.5448 0.771317 121 143 58
0.264413 -9.27622 -6.66551 79 107 56
1.51691 -8.81092 -5.79345 68 88 39
3.5983 -7.59199 -7.36903 91 109 67
1.95338 -10.8705 -0.457927 93 110 42
5.24287 -4.61986 -6.21589 42 53 23
-1.13642 -11.5107 -1.53692 102 122 71
-3.55896 -8.68452 2.42796 71 79 42
1.7276 -8.14437 -10.8725 178 132 72
0.603995 -11.5678 -1.37048 91 112 55
3.61462 -7.57509 -7.03129 79 97 55
2.3614 -10.7023 -0.965545 87 103 38
-0.90339 -11.2956 -1.64979 104 125 68
1.44651 -6.40312 -9.10527 150 115 49
0.249811 -9.14301 -6.7755 76 104 53
1.60278 -11.4451 -1.86279 112 128 65
2.63509 -10.5676 -1.22465 59 78 33
1.54959 -10.8425 0.0354881 63 82 36
0.0687842 -9.1507 -6.71394 82 109 56
-1.20599 -11.4866 -1.43761 99 120 64
2.00925 -11.2439 -1.42673 104 121 51
2.56429 -1.51461 -4.09217 117 126 45
1.86291 -1.43364 -4.1418 109 81 34
-3.93536 -8.97852 0.657974 55 72 28
-1.33976 -11.6435 -0.678098 106 124 64
1.07665 -11.8055 -0.741125 85 108 52
1.87638 -8.01211 -10.1277 172 126 64
1.25897 -9.49075 -4.80781 97 129 44
-0.144238 -11.546 -1.01609 126 131 65
1.73059 -8.63272 -5.41994 83 100 46
2.77257 16.7695 -9.42018 122 116 100
-3.27854 -9.30812 0.481403 88 110 48
0.710802 -11.5025 -1.03461 107 121 68
-4.1079 -9.39024 1.05417 139 143 84
-5.25256 14.9891 -6.85959 96 86 74
2.40173 -7.04186 -4.20157 46 62 25
2.32663 -2.08546 -2.71541 108 132 48
2.49508 -7.97208 -3.91761 55 71 34
0.441598 -9.0912 -6.5618 73 101 50
-0.334676 -9.10627 -5.42222 98 128 56
-0.132938 -8.25259 -8.66529 72 95 41
4.90968 -5.38087 -6.26441 73 90 36
2.0455 -0.0475379 -3.59342 110 132 50
2.41805 -7.71477 -5.4497 55 67 29
-0.483011 -11.7052 -0.662787 133 143 82
1.0321 -11.2898 -1.70237 94 115 48
2.23288 -10.0188 -0.153443 96 108 34
5.20103 -4.75572 -6.48445 51 66 25
1.82997 -11.4922 -1.86261 96 117 50
1.75214 -9.1823 -4.81874 72 101 37
2.26545 -10.911 -2.13888 77 101 49
0.074166 -8.94078 -6.78233 74 101 48
1.33654 -10.8881 -0.199792 60 78 30
2.12376 -11.4127 -2.27135 86 110 50
3.09848 -10.0168 -0.395411 87 99 35
3.50741 -7.08746 -5.6745 54 66 28
-0.918486 -11.0527 -1.99582 96 123 70
-2.15605 -8.88106 -4.2558 105 103 46
1.39855 -11.3718 -1.97822 94 116 54
4.35351 -7.19612 -7.04345 54 70 33
5.41016 -4.58087 -6.48116 41 50 23
-1.61161 -11.5108 -0.921635 112 130 68
-5.49132 -9.41538 -1.16556 69 97 38
0.361022 -9.25952 -6.89813 92 119 68
2.01122 -11.2295 -0.546979 110 120 51
1.10256 -11.2647 0.241857 72 81 38
3.19919 -8.02986 -6.81457 75 93 53
0.350867 -9.20887 -6.79446 79 107 56
3.4232 -6.9809 -5.69747 53 67 31
1.60104 -11.7175 -2.28978 92 117 60
5.27342 -5.1123 -6.42177 44 60 23
2.32437 -11.3159 -1.87069 83 107 47
4.05046 -7.27843 -6.43185 54 70 33
4.37555 -3.49277 -6.42402 109 121 39
-4.02648 -9.09974 0.851173 72 89 35
2.37285 -7.9248 -5.32375 61 78 34
0.594898 -11.6911 -1.30566 92 113 54
-0.40457 -11.3023 -1.06213 126 131 65
2.96883 -7.8091 -6.95514 74 92 50
0.959684 -9.63087 -4.59838 126 140 52
1.1416 -11.351 -1.16573 95 114 59
2.5754 -8.20659 -5.55759 49 65 26
2.13483 -10.8599 -0.746562 93 106 37
-0.643381 -8.46416 -8.61512 79 103 51
0.834553 -9.64647 -4.32429 137 146 79
2.32324 -1.40066 -3.72802 111 129 43
1.73472 -10.9201 -0.598422 107 114 47
4.77507 -4.07878 -6.39137 31 46 17
1.17902 -11.5241 0.29277 72 85 39
1.46947 -6.65201 -8.93224 144 109 43
1.92433 -11.7419 -2.32815 86 113 58
3.8664 -7.14905 -7.32228 63 80 44
-1.71563 -11.6501 -1.33376 94 118 60
4.37615 -6.11495 -6.55051 44 57 27
1.26293 15.5573 -8.4023 96 88 69
5.45109 -5.48461 -6.51836 51 69 31
0.00224654 -8.92251 -7.64146 72 101 55
-5.06749 -9.94634 -0.313689 107 130 42
-0.234423 -11.4753 -1.72535 93 117 65
1.2253 -11.3386 1.1722 87 95 46
1.66885 -9.66684 -4.67558 87 118 40
0.922527 -11.8327 -0.830599 106 123 69
2.78294 -10.5628 -1.83057 56 71 28
2.16757 -11.174 -1.66407 88 110 45
-3.5853 -8.54842 2.41431 51 62 28
-0.374784 -11.6955 0.455718 101 121 49
1.15639 -11.1997 -1.59026 90 106 43
3.31883 -7.15275 -7.88305 76 95 50
1.88031 -9.30821 0.155632 76 90 31
2.0528 -8.29011 -4.07245 34 49 18
2.32979 -7.89491 -4.10499 46 63 21
2.64029 -9.72898 -0.0240118 76 85 30
-4.33362 -8.11794 2.49204 98 106 49
3.44945 -7.21839 -6.10764 50 65 32
1.35902 -9.5817 -4.68842 95 124 44
1.81758 -11.2289 -1.15914 105 116 50
3.977 -6.55645 -5.7537 44 55 25
1.27447 -11.3088 -1.11383 85 100 43
2.09849 -0.420411 -3.40972 99 124 43
2.25702 -1.21876 -3.86236 118 135 43
-1.73858 -11.3055 -0.270943 91 113 49
2.70714 -10.2898 -0.891109 62 78 31
2.71834 -10.3114 -1.42992 54 71 27
2.35107 -11.396 -2.36082 82 103 46
-3.20595 -8.36993 2.15282 44 56 20
2.29424 -11.1195 -1.53925 85 106 41
-1.4459 -11.219 -1.66542 97 117 66
1.98924 -9.60237 0.272237 70 85 30
1.52504 -11.3412 -2.00539 98 119 54
2.88605 -7.56179 -8.00976 91 108 40
4.9813 -5.04464 -7.0721 124 120 108
-0.569787 -8.40442 -4.95332 169 161 138
1.95476 -9.7242 -3.56469 197 208 178
0.101187 -7.87057 -8.80237 247 250 233
1.83235 -1.48737 -3.84698 87 85 70
-0.514487 -8.22324 -5.19613 173 167 143
-4.96453 -8.70059 -2.00899 172 170 149
6.78304 -2.39837 -5.71773 134 128 114
4.27992 -3.98258 -6.43021 122 124 103
2.41717 -1.72229 -4.8525 117 112 83
-0.508417 -3.34569 1.08286 81 83 61
4.19291 -5.27315 -7.97563 157 162 139
3.13801 -5.74793 -8.81032 195 198 179
2.56683 -8.37827 -4.59748 33 44 12
1.91446 -8.28193 -5.44779 34 45 13
3.44483 -5.38039 -4.93738 140 137 118
-0.694026 -8.2727 -4.78168 107 106 86
-0.594631 -8.45979 -4.94393 176 169 141
0.442669 -4.92259 -8.58424 33 42 23
-3.76684 -9.52627 0.165673 60 69 38
3.64137 -4.38169 -5.81178 78 86 37
0.979792 -2.09322 -5.03352 110 104 88
3.48161 -7.26189 -5.73384 86 98 62
2.52132 -1.60266 -4.9238 106 101 79
1.75886 -7.05214 -6.24411 33 44 14
0.666977 -4.15476 -6.87662 51 45 29
-2.56589 -8.85337 -0.493474 158 150 111
1.85269 -1.33161 -3.68739 73 67 55
0.794033 -2.34927 -5.49417 45 31 22
-3.56839 -9.47188 0.369468 43 49 21
3.1799 -5.76205 -8.42087 32 40 17
4.87733 -4.70816 -6.71228 25 35 11
6.37466 -1.98364 -6.03675 104 106 84
0.7698 -2.21707 -5.38318 39 29 20
1.96999 -1.25024 -4.49314 66 60 34
-5.8363 -7.61 -2.29176 55 57 33
1.96726 -7.95031 -5.34032 30 40 13
2.46212 -1.36673 -4.5156 70 71 31
-3.15538 -9.27651 0.698378 37 45 21
-2.5607 -8.84403 0.00218782 58 69 29
4.87761 2.62482 -3.47566 29 36 20
4.76174 -3.39215 -6.40067 40 48 24
4.94396 -4.66609 -6.76713 26 35 14
-3.09177 -8.24765 0.497029 38 45 27
0.622829 -2.99042 -6.42127 47 34 25
3.22916 -1.24065 -4.54948 83 86 41
-0.434004 -8.37036 -8.51925 56 68 28
0.417484 -3.22244 -5.49131 22 29 11
-4.10566 -8.67223 -3.36117 40 50 23
0.81402 -5.44454 -8.71122 44 37 21
-3.51567 -9.07714 0.169743 34 43 16
0.375645 -2.63521 -5.35962 45 33 19
5.46091 -0.312033 2.17133 20 23 16
0.544475 -3.23883 -5.68786 30 28 13
4.52693 -2.51444 -6.53868 36 46 21
2.09279 -1.51811 -4.75942 58 52 30
-3.55361 -9.32425 0.314184 37 46 19
4.55664 -5.85944 -6.42926 32 42 17
4.92245 -3.21023 -6.62327 53 64 34
3.64947 -5.75726 -7.74495 16 25 8
-2.88647 -8.73889 -0.260636 37 46 17
2.1843 -8.36101 -5.26651 33 44 12
-0.540947 -8.3139 -8.60938 62 75 32
5.99589 -0.0943919 1.9419 8 13 6
3.28718 -1.45856 -3.68534 49 55 27
4.92531 -2.46304 -6.57227 42 52 27
-4.47018 -8.76814 -3.76563 35 45 21
4.36346 -2.76333 -6.18136 79 97 39
1.66129 -0.968759 -4.81934 51 45 21
4.7965 -4.02377 -6.91383 23 29 19
-1.91124 -8.72942 -4.52896 55 54 33
5.29897 -5.29233 -6.60974 32 47 16
0.768453 -3.13979 -6.06665 37 29 18
0.188097 -3.56168 -6.63341 15 24 7
0.546988 -3.29697 -5.26237 18 27 8
1.42627 -0.582006 -4.36374 67 44 28
0.718341 -3.31216 -6.58096 48 36 22
-2.11274 -2.4126 -6.74531 36 49 21
4.37504 -3.71672 -6.86469 22 28 14
0.992711 -4.4174 -7.76859 50 38 22
3.68496 -2.76168 -6.25244 53 35 23
4.50017 -5.19117 -6.76546 32 43 13
5.18195 -3.6004 -6.72546 68 87 42
4.19358 -3.59687 -6.47107 36 46 21
0.36678 -2.77475 -5.42991 33 25 12
4.37648 -5.44145 -6.29752 25 33 12
5.07805 -2.17531 -6.83182 42 52 27
-0.933169 -5.42303 -7.72597 32 40 25
-1.94524 -8.78841 -4.41863 55 57 35
6.51618 -0.22931 1.98212 9 10 5
4.57577 -5.54899 -6.59925 33 44 12
-0.247865 2.0886 -1.08853 55 36 22
0.595167 -2.41224 -5.73225 37 23 14
4.93019 -3.78737 -6.95403 33 36 27
-1.77578 -2.24867 -6.70671 38 48 23
4.43709 -6.06894 -6.99689 18 27 8
0.39375 -2.5897 -5.5624 41 28 19
1.62829 -8.81595 -3.72406 22 31 12
3.53197 -6.06965 -7.9519 19 27 6
3.33095 -4.53293 -6.9362 17 24 8
6.43504 0.161956 2.35389 14 14 6
0.839557 -4.3305 -8.25627 45 31 18
-7.19444 -3.20622 1.55836 28 38 11
0.19828 0.0579803 -3.46077 49 27 14
-0.359157 3.62564 1.10025 196 174 125
-0.7405 -1.06027 -5.03367 68 85 33
-6.71634 7.01743 11.9491 184 148 96
-1.81113 2.611 4.74814 109 102 73
-1.39065 -0.822358 8.58025 194 172 125
-1.8153 2.05445 5.83555 128 117 97
3.61217 4.39388 -4.02887 173 180 146
-2.97859 2.21075 7.05149 131 118 101
-5.66692 -9.10954 1.40924 88 99 57
-6.75276 -4.88193 2.02766 164 161 116
-2.51555 -1.88806 -6.58149 88 71 28
-1.81753 -1.90663 -6.2643 60 76 27
-0.0558949 4.07317 5.09247 144 133 113
3.23108 -1.50699 -4.19561 131 137 75
-0.254245 -0.226309 5.30623 215 186 154
-4.71004 -0.866166 2.70689 83 81 30
-0.277442 4.24638 1.17844 228 191 149
-0.20893 5.45721 2.53186 181 114 88
-2.41975 3.70628 5.10362 137 125 103
-0.637466 -3.32859 1.44042 113 99 52
-0.0644317 5.43987 2.69112 201 144 115
-1.93152 0.798983 8.40187 126 99 80
2.31713 5.82156 -3.88427 187 184 177
-2.01385 5.17973 3.35135 183 158 127
-3.76009 4.75122 0.945109 219 171 131
14.9383 18.4936 -4.56002 218 209 194
3.96034 2.93662 -3.58588 179 176 157
-3.48851 3.42815 5.19447 152 142 115
-2.63358 4.57574 3.45858 161 133 94
-1.56772 2.35888 5.98216 114 106 83
-3.47021 3.2927 5.82417 141 130 100
-4.26789 2.56366 6.33094 165 131 96
-0.128039 4.07942 5.49422 137 130 104
-2.57511 4.97358 3.0183 172 154 116
3.1276 5.62678 -3.62388 196 195 175
-3.16001 4.82737 0.78292 228 179 138
1.67794 -1.05297 -3.62793 99 111 49
-3.17484 4.97494 2.74309 108 87 66
-4.31622 4.5762 3.12932 164 141 109
3.68337 21.4529 -5.56166 204 180 132
-3.39701 5.03075 2.39139 119 81 58
-1.13324 20.0859 -4.61156 141 134 126
-3.36627 3.44729 5.19119 153 139 112
14.2302 18.504 -5.00137 190 182 169
-0.755651 3.79287 1.00423 216 190 141
-2.67854 3.99113 4.51188 131 112 82
-2.61088 4.88365 3.26525 145 126 84
-3.45061 3.70829 4.72719 153 142 114
-3.96943 4.7205 3.15412 169 153 128
-3.46863 5.06448 3.05671 150 134 109
-2.32257 4.93545 3.39686 152 127 87
-4.60713 -8.93089 1.83074 67 79 43
-7.76685 18.2637 -2.59585 177 160 117
-2.93476 16.0525 -7.2904 110 102 89
-3.62487 2.82138 6.34224 153 143 116
4.05482 4.3501 -3.94554 160 158 145
-1.97454 4.73866 4.03703 131 114 84
3.22458 -0.909273 -3.36532 102 120 58
4.75651 22.2073 -6.76301 150 142 131
4.97606 22.4805 -6.80987 150 142 131
-0.956706 3.28142 -0.105031 116 84 37
-3.63138 4.52413 3.60791 113 92 61
-3.93657 4.14978 4.02426 117 106 78
-3.64775 2.213 6.79893 149 133 110
-1.65126 2.54252 6.55045 154 141 122
5.88177 22.3392 -6.67962 123 116 108
-0.0630084 1.49516 7.75167 142 119 101
-4.81593 19.0312 -3.37686 180 156 108
8.41518 23.6869 -7.88158 146 136 126
-5.78326 -8.71857 1.59772 79 92 49
-4.52928 -8.26341 0.89813 52 55 38
17.5082 17.3251 -2.36807 117 108 99
-0.638695 4.23775 5.0483 143 133 106
-0.94102 2.89014 -0.41605 111 79 41
7.62483 23.3207 -7.61834 95 85 76
-2.04904 -1.34149 -6.2776 82 52 44
-6.74012 -8.39717 -0.834531 67 86 40
3.01806 -1.4304 -3.81176 124 134 73
0.748104 4.42313 4.10951 112 97 68
-4.52198 -7.55277 2.09862 42 55 29
-7.10616 7.79877 11.7421 191 152 97
-3.30076 4.19087 4.12918 144 128 95
-4.7037 19.0712 -3.41067 176 154 107
-2.12735 0.875343 8.36012 117 95 74
-1.52969 2.56119 6.71202 140 128 106
-0.106473 5.35013 3.17442 115 105 69
-0.129175 4.42799 4.79812 126 116 89
-3.05216 3.76388 4.88829 143 131 107
-0.221871 20.6932 -4.83029 108 99 94
-4.50121 -9.01582 1.83825 65 76 44
-2.64898 4.35861 3.7705 153 137 104
-4.04842 3.47921 4.80822 150 140 113
-2.78435 19.2835 -4.1813 116 108 105
-7.50835 -4.78987 1.8951 115 131 69
-0.318553 4.77925 4.17025 124 120 85
-4.33126 3.64701 4.46356 150 136 107
-1.67648 5.21314 1.92329 96 46 23
-3.18243 2.06681 7.38053 134 114 90
0.0737822 5.21399 2.99659 131 112 80
-2.83983 3.21819 5.83347 121 101 76
-2.37067 1.35814 8.16342 108 96 70
2.38816 -1.37042 -4.14111 105 113 53
-2.06515 19.7492 -4.3511 116 109 103
4.44673 4.3457 -4.37752 155 153 138
18.5595 17.6625 -1.98478 79 72 64
-1.02289 5.3587 4.12617 93 78 57
-2.94157 4.91638 3.09443 134 117 74
1.721 -1.74813 -2.71957 89 95 47
-3.65067 4.28106 3.87939 125 105 72
-1.52642 5.2693 3.64745 145 129 96
-1.71461 1.18429 8.17643 131 118 99
1.17981 20.5027 -5.13201 124 114 104
-0.600557 5.02722 3.87527 118 112 76
-0.677967 0.922003 8.5757 97 42 37
-1.75895 4.76677 4.42052 127 111 85
-4.09619 9.17464 5.55304 145 112 77
-0.644527 4.44989 1.43589 151 76 37
-1.98116 0.946666 8.27185 100 82 58
2.56989 -0.905843 -3.65821 117 133 68
-3.33857 1.82794 7.85939 159 54 35
0.863759 3.01525 6.56651 136 125 97
2.61447 -1.07749 -3.41771 112 128 66
-5.70347 9.91613 7.41935 101 68 49
-2.5598 4.6031 3.72213 142 127 88
-6.46684 5.27868 4.99342 125 44 27
-4.87667 -8.93576 1.75583 75 90 51
0.282835 -4.35553 2.12397 52 62 38
0.601558 1.63193 7.61194 134 101 84
0.583378 2.45282 6.96315 117 99 77
-5.6206 6.16194 11.4583 135 91 64
-1.67836 1.92456 7.33095 125 121 92
0.22222 4.31428 4.86939 113 103 76
7.9345 3.62967 4.12131 92 97 43
-5.03739 -8.67286 1.82979 60 73 43
0.00940328 20.4822 -4.96628 94 80 69
-4.51226 -8.06406 1.71949 48 57 28
-5.97401 19.2842 -3.13037 82 78 69
-6.10338 6.80205 10.8924 132 83 53
-6.02676 6.77944 11.0405 126 80 54
-0.669103 5.4589 2.45669 73 47 34
2.53012 22.7156 -5.99162 135 128 120
-4.17135 3.20845 5.7394 134 119 88
-4.78184 -8.89147 1.64978 81 93 53
-4.616 19.5111 -3.56212 93 84 79
-6.51732 5.64303 5.59652 122 39 21
-3.42702 4.92586 2.78764 76 59 41
-6.93331 5.29397 5.73836 125 43 22
-0.509479 -2.60514 1.79633 48 52 29
3.06042 21.7238 -6.29425 112 103 94
4.72563 18.0282 -10.2621 99 94 88
-3.88828 4.43064 3.55027 102 82 47
-5.19038 19.5843 -3.96123 115 107 104
-4.46869 -7.83865 2.19911 44 58 33
-2.26342 2.35309 6.03983 105 92 58
-2.99836 19.5561 -4.08306 116 109 103
-1.7881 -0.892602 8.05635 156 57 38
2.40097 -1.06259 -3.04059 76 89 45
-2.01844 -1.42946 0.261944 70 79 36
-3.36095 3.9501 4.35201 145 132 100
2.63825 -1.10142 -3.29587 105 120 63
0.0598567 -1.17346 -3.58914 120 82 35
-4.84111 -7.4041 2.70126 46 56 31
-0.0252958 4.07132 5.25579 120 110 83
6.04985 22.7539 -8.94799 107 101 89
6.59412 22.9016 -6.90114 133 126 118
-5.8507 -1.68508 2.83009 87 70 27
3.21845 -0.966765 -3.54718 92 111 47
6.65628 23.5982 -8.137 125 115 105
-2.48108 1.62984 7.71133 100 93 64
-3.68996 -0.293158 8.03291 173 69 42
0.0415542 -0.424139 7.59884 153 66 38
1.69155 17.1159 -9.26847 103 101 89
8.28272 24.0483 -8.14681 104 90 81
3.24057 -0.941454 -3.65906 101 120 56
-1.21092 3.66294 0.931471 137 94 39
-1.88139 4.73845 1.9637 132 80 33
-1.42964 5.01516 1.94394 133 83 32
-0.480908 1.52152 7.85569 124 106 86
-1.11087 1.18136 8.17258 125 104 83
-6.45478 10.0095 8.3757 121 96 66
2.49755 -0.949353 -3.13702 79 92 49
-3.88444 -6.78499 2.77456 41 52 22
-3.8712 -6.22121 3.03411 52 65 35
-7.85615 10.2306 8.19581 189 156 113
-6.7487 -7.72468 -1.19814 56 71 28
-0.662696 5.33483 3.13941 113 104 65
-6.77203 -0.301458 6.11251 156 53 36
-4.70912 -7.8533 1.88183 47 57 30
4.32701 22.9007 -7.64195 119 111 100
-4.62031 19.7904 -4.10795 117 106 102
-7.16787 2.55157 3.7821 121 23 14
6.59136 18.9288 -11.329 91 87 78
-0.854788 3.83351 0.93302 135 94 38
-3.95655 -8.1883 2.66787 42 56 33
-7.08174 -3.73965 1.07328 78 91 37
3.35007 -0.975862 -3.25401 87 104 50
-0.162888 20.0886 -5.01675 106 93 85
-2.12651 1.80084 5.41155 67 66 35
-6.21632 0.845367 5.92371 150 45 26
-6.85291 -1.44485 2.22848 81 90 37
-1.96674 20.699 -5.0585 129 122 116
-1.87387 20.2711 -4.8519 111 106 100
1.82083 21.5974 -6.19189 120 113 107
14.6998 20.5827 -5.76277 156 125 71
-6.38699 -3.46879 -1.32842 93 110 40
-5.89267 -1.38948 1.58959 75 86 30
-6.03484 19.5871 -3.5336 108 101 93
-2.48578 1.93493 5.4865 68 67 36
-2.32584 -0.714016 7.96982 106 27 22
-4.06863 5.08985 2.5753 131 38 23
2.18278 -1.04777 -2.99568 70 83 39
2.33583 -0.937982 -2.98735 70 83 39
-1.92096 5.59242 2.23406 76 34 20
3.61466 22.3702 -6.58728 118 110 99
14.181 19.7178 -5.73845 162 131 77
-6.1926 9.23488 3.07856 163 136 89
-4.74847 2.99319 5.70771 141 37 24
-6.46012 3.22141 2.5089 120 30 21
-0.675618 4.34039 0.937749 125 82 27
4.7075 22.8534 -7.05845 113 100 91
-0.0614164 20.6499 -7.11929 100 93 83
-1.91744 5.74648 2.11501 63 14 7
-6.39871 7.79124 11.0582 99 83 60
-3.77403 -7.86672 2.37008 47 57 32
-0.070707 2.41366 -0.769854 121 84 29
-6.70464 -7.67518 -0.934919 53 68 27
-6.99486 18.9746 -3.5722 112 103 96
-4.11762 5.48661 3.55771 115 25 14
-5.21788 6.492 12.911 183 152 98
-6.87683 9.56481 9.01094 143 112 68
-2.73081 5.14203 1.65442 125 22 17
-4.41012 20.589 -4.47459 116 109 103
6.87765 23.6239 -7.5958 116 108 97
-2.97391 7.7439 2.16274 179 153 102
14.0281 19.4167 -5.43942 162 131 74
0.541739 17.1996 -9.43038 91 90 85
0.556634 17.0956 -9.44899 90 89 84
-3.98905 7.74095 13.5095 177 144 93
-6.94165 -3.00253 0.695803 92 98 38
-6.25279 9.31108 9.14258 79 70 53
13.1169 17.4798 0.320959 196 173 123
-2.51503 4.06284 10.3082 155 51 24
-7.26645 19.3895 -3.29363 90 83 75
-2.1691 4.70163 1.30171 103 14 10
-7.82513 -4.07186 2.20474 69 89 36
-2.46399 20.6143 -4.65826 120 115 111
-7.17413 -3.70806 1.34116 83 99 37
4.99587 23.1292 -7.2339 117 107 97
-7.07627 1.75425 5.13112 127 26 16
-4.33405 4.86195 3.25423 133 37 25
-6.44217 -1.16861 1.62128 104 107 36
12.8794 21.4393 -5.15059 201 174 131
5.60586 22.9657 -7.87547 118 108 96
-2.53758 20.0591 -6.03945 112 103 94
-7.17182 -4.46192 2.4456 70 86 37
0.533396 21.4762 -6.84396 94 87 79
8.18736 21.9642 -6.35977 195 171 127
-8.09563 0.989491 4.37945 127 24 17
5.02974 23.0652 -7.44813 118 108 96
-6.84491 8.02557 4.35942 145 117 78
-7.151 7.68401 10.9587 175 142 91
-3.66856 3.58277 6.83465 143 35 23
-8.08416 10.329 7.75156 186 153 110
-7.9267 9.82285 8.19663 176 143 98
-3.87009 11.3362 6.71674 133 106 63
13.0366 22.1035 -5.80729 184 158 107
13.0509 19.554 -2.52497 207 182 141
-6.61475 4.64738 6.42291 120 28 15
-6.9048 12.1543 8.80912 185 154 107
-7.38579 7.77719 11.2895 193 160 117
1.5521 21.9617 -7.11807 89 85 74
-2.14729 20.6379 -5.96461 106 99 89
6.83778 23.6103 -7.82658 111 98 89
-1.7596 -1.87014 -6.51317 50 63 19
-0.535219 21.6987 -5.60678 115 108 102
-0.672331 -10.3407 -4.96447 141 130 108
-5.48498 -7.02846 -2.26907 208 195 178
2.26179 -8.77156 -5.6239 192 191 186
3.81698 -5.56864 -5.32551 140 137 120
5.27792 -6.15807 -7.28013 165 158 140
1.59847 -7.22901 -8.52261 241 242 236
1.42761 -7.34779 -8.08525 175 171 160
-4.75255 -9.40984 -0.492543 214 205 188
4.2167 -5.02828 -5.95394 143 138 116
-4.97082 -9.33088 -1.40198 219 218 197
0.278529 -9.23193 -5.48009 214 222 199
-5.61338 -2.1061 1.86808 115 103 89
-6.55749 -2.89499 -0.0192975 48 52 17
2.31257 -4.60352 -5.06458 145 139 117
1.78203 -1.67197 -4.67849 102 97 77
4.16326 -3.20684 -6.11826 176 178 156
2.0471 -8.70736 -5.73679 213 217 203
3.36129 -5.61808 -4.97459 149 143 121
2.26667 -8.42841 -5.76791 211 214 197
2.44673 -8.77679 -5.50734 255 255 250
-4.20281 -9.79116 1.62738 207 206 188
2.4523 -8.85729 -5.54083 255 255 251
5.85213 -0.51677 1.46632 80 83 66
-5.68299 -1.9911 1.79068 113 110 91
2.08774 -1.90185 -4.89583 123 117 103
-0.70351 -8.09061 -6.16444 200 188 166
1.17633 -2.93096 -5.71749 119 117 94
0.705336 -3.6869 -6.31923 64 56 37
-4.45176 -8.74546 1.24918 146 154 113
5.00224 -5.12461 -7.63671 185 188 169
1.05742 -2.09777 -4.95062 109 104 84
1.94783 -0.902712 -3.81705 73 68 38
-0.512708 -8.99605 -6.11822 205 197 186
3.41874 -6.842 -8.27084 200 202 188
-0.983662 2.03484 -1.68591 150 143 137
-4.70415 -10.2296 -2.84121 233 235 211
5.73911 -0.729945 1.35703 76 79 62
3.7427 -6.35687 -8.46549 212 210 197
-5.1178 -8.16465 1.72798 128 126 105
-5.35305 -1.65622 2.02157 97 90 74
3.69213 -6.44096 -8.46667 200 201 187
-0.706491 -7.50595 -4.17896 38 43 20
3.36746 -5.46376 -4.94013 133 127 111
-7.23875 -2.96042 1.62346 152 150 138
4.53014 -4.86739 -6.20793 109 120 90
4.66398 -5.01403 -6.04766 114 124 100
-4.78366 -10.1538 -2.89185 240 232 213
0.233806 -9.3684 -5.29072 98 109 77
-4.15734 0.476006 1.23811 59 64 34
4.07307 -5.79052 -8.35355 166 172 144
-3.43325 -9.18697 -0.939405 37 48 14
-4.68388 -8.63639 -0.0383624 82 90 41
-4.99432 -9.02627 -1.64374 232 236 213
-5.70889 -8.941 -3.03409 245 240 221
-3.03691 -8.73983 2.09863 33 42 23
1.49037 -9.03228 -3.42326 37 47 22
0.603901 -3.38658 -6.14373 57 48 31
2.98256 -6.92693 -8.06637 94 105 75
-0.529695 -7.51092 -4.80516 70 70 46
3.8467 -2.94264 -6.01109 168 162 148
-5.77376 -1.87964 1.61662 107 106 86
4.53342 -4.67077 -6.08081 138 133 114
4.73073 -2.1816 -6.25495 88 86 45
2.32255 -3.1851 -5.27807 123 126 105
1.35348 -5.44489 -7.77261 56 48 29
-0.772939 -8.27246 -6.1254 191 177 151
5.79615 -0.55248 -0.294923 64 71 55
-0.324626 -8.47737 -5.85602 47 62 23
1.93955 -8.81554 -5.41429 46 58 20
3.45993 -5.87717 -4.59425 157 151 135
5.07699 -0.295845 2.11389 75 75 63
3.71752 -5.64111 -4.62711 148 145 126
3.54472 -5.4139 -4.85721 148 145 126
-6.70711 -7.95061 -1.14277 226 218 197
-3.76635 -7.99126 -3.15647 49 59 25
3.38397 -2.86354 -5.99004 152 147 127
-0.435549 -8.60152 -4.75626 163 161 138
3.24109 -5.5606 -5.0626 143 138 118
2.57169 -1.25811 -4.51259 91 86 46
-5.5217 -7.99815 -2.17072 70 80 56
4.4209 -1.94141 -6.15296 129 117 105
3.4195 -2.22649 -6.18996 140 134 118
0.692085 -1.66274 3.57575 93 91 78
2.49778 -1.21848 -4.15089 63 69 35
2.37307 -1.09662 -4.35401 69 73 36
-4.15711 -8.53846 -3.5898 44 55 23
3.21886 -1.3971 -4.01274 73 70 35
-0.899952 -0.289088 3.10783 60 58 43
-0.149513 -7.37619 -3.48086 36 38 24
0.408092 -6.62333 -7.96687 46 55 38
-5.25335 -8.69005 -1.63968 80 89 62
-6.52699 -8.05087 -1.34296 229 222 203
-0.703962 -3.00504 0.311595 86 90 63
-7.14971 -2.95616 1.84274 143 139 128
3.40838 -3.68318 -6.35116 84 97 44
3.33755 -2.67273 -6.29362 164 161 144
4.35487 -2.29959 -6.08595 131 126 107
0.532837 -2.37067 -5.43735 48 32 19
-3.72636 -8.66172 2.30639 27 35 14
-7.37273 -3.13409 2.11654 126 119 103
3.90485 -4.62588 -5.2884 147 145 122
2.34807 -2.26091 -5.21141 114 118 95
3.27798 -2.5826 -5.91231 146 145 127
1.83889 -7.99136 -5.78191 54 64 30
2.185 -8.66452 -5.26118 54 64 30
-5.07964 -8.92402 -1.57113 87 94 61
0.0827412 -9.48628 -5.48792 45 62 20
4.5872 -4.82087 -5.90887 137 132 112
4.79146 -0.0559694 1.44081 49 51 40
-2.68309 -9.37634 -3.40522 84 95 61
1.49428 -10.3025 -1.95937 51 60 29
-6.70137 -7.25351 -0.64872 120 107 75
-5.46946 -2.68418 2.74747 110 102 83
-5.64091 -2.62002 2.67075 98 95 76
2.1438 -7.8761 -5.36588 39 50 18
3.30033 -5.55367 -4.71275 146 140 124
3.74414 -5.57375 -4.7224 137 132 112
1.21435 -9.53822 -3.57512 55 65 40
-7.34618 -2.93898 1.73653 139 133 121
-6.00816 -2.2904 2.38129 70 75 52
-6.69143 -3.31992 0.067179 77 85 48
-0.371958 -7.18795 -4.07777 30 32 18
0.377595 -1.65772 -5.05405 54 35 21
0.303981 -3.64197 -6.89391 36 40 23
2.92209 -1.53689 -4.8318 95 86 69
5.92674 -4.12063 -6.61231 71 79 58
-4.756 -9.7218 -3.10468 97 100 73
-6.38088 -1.5687 1.77075 119 110 95
5.8145 -0.664314 1.1847 63 65 51
-0.759883 -5.83037 -7.51963 55 67 45
2.98049 -6.50155 -8.12782 48 55 37
-4.26445 -9.38572 -3.87333 64 69 46
-4.21627 -8.85111 -3.63539 43 53 28
3.43795 -2.16343 -5.88596 128 121 105
2.47019 -3.94119 -5.38261 136 133 114
-4.5541 -8.89319 -0.218557 46 55 26
5.79052 -0.772839 0.180525 47 53 41
-0.673169 -8.63736 -6.6922 54 72 24
-5.85888 -2.21633 2.01816 59 69 45
6.02776 -1.93607 -6.37456 84 78 52
2.32879 -2.07797 -5.26608 117 111 95
2.59117 -1.32106 -4.45493 91 83 47
-6.88765 -3.23191 0.729363 59 70 30
5.23871 -2.69494 -6.81121 51 61 34
-3.80045 -9.32708 -0.0246054 51 60 29
-2.36242 -4.68655 -3.55615 43 48 26
-3.26829 -3.29128 -7.18803 55 65 40
-4.93182 -9.15929 0.389066 79 91 41
3.12815 -1.3028 -3.74631 59 59 31
-2.42993 -3.9185 -6.76873 24 33 14
-4.81486 -8.27517 -2.44577 47 55 31
-2.29276 0.678236 8.06911 77 42 38
3.80157 -7.2471 -5.43036 48 59 25
-3.97284 -9.90936 0.94559 43 52 21
5.58865 -4.03211 -6.70931 55 63 42
-2.02641 -10.7184 -1.51509 65 62 31
3.84528 -6.73273 -5.71024 30 40 15
-4.4229 -8.62164 1.59736 45 54 25
5.46796 -3.60051 -6.70738 48 53 33
-4.94093 -8.79778 -2.83204 33 40 22
-2.06587 -1.81895 -6.89591 47 57 33
-1.46214 -3.42603 -6.42919 34 42 19
5.00364 -5.90287 -6.86566 31 42 12
-4.42826 -9.3515 -3.20336 40 48 25
-6.23772 -6.90047 -2.35776 68 74 48
-6.63617 -7.45723 -1.25576 45 55 31
-4.54653 -9.3932 -3.31124 56 61 38
-3.6028 -7.84142 -3.34674 45 52 19
1.56106 -7.00558 -8.32867 64 59 39
1.10751 -7.04508 -8.03413 105 105 79
5.7152 -3.12796 -6.707 61 67 39
-3.92888 -7.94336 0.627989 25 32 16
-5.99275 -0.807539 0.95791 42 45 24
2.02367 -1.87266 -4.79276 102 97 77
-0.260115 -8.6713 -6.76751 48 65 23
-0.39062 -8.58876 -6.69311 41 56 17
-4.09228 -8.20228 -3.35061 34 44 19
-3.41737 -7.99455 0.675166 27 36 17
-4.71104 -9.46305 -3.207 62 65 46
4.8745 -2.86206 -6.80461 44 54 30
-4.89552 -8.47485 -2.7605 32 42 17
-6.47201 -10.2013 -0.457295 232 221 203
-0.522627 -8.55576 -6.88567 50 65 22
1.89304 -0.917685 -4.20466 55 50 30
-5.1601 -8.30133 -2.04673 70 78 54
1.39398 -0.647054 -3.93989 71 56 33
-6.48629 -7.35398 -1.68804 58 64 38
4.29915 -2.90198 -6.184 40 48 24
-5.80761 -2.91722 2.62244 47 57 32
0.985518 -3.59529 -6.60525 51 39 25
4.13425 -2.5404 -6.18022 48 50 28
-6.82547 -3.14536 1.30902 56 64 27
4.77272 -5.81667 -5.74665 27 35 14
5.28619 -3.30406 -6.71664 36 45 24
2.7061 -5.60601 -7.95058 23 30 12
4.53834 -2.97041 -6.05258 47 57 30
2.84352 -1.2355 -4.99271 93 89 60
-3.66085 -3.27285 -6.93415 40 52 28
0.339309 -8.9419 -6.92964 40 54 21
2.45025 -1.52378 -4.69314 64 68 31
-4.76853 -9.16131 -3.15427 38 45 27
5.17053 -5.99945 -6.26329 41 55 20
2.93138 -1.27505 -3.92469 43 55 19
0.823286 -3.24907 -6.15648 49 37 25
5.24165 -5.61267 -6.80327 27 40 10
-2.5601 -3.34472 -7.0892 27 36 15
4.93938 -3.19471 -6.64595 32 40 19
4.66722 -5.95005 -6.41628 43 54 22
3.80463 -6.9215 -5.43616 28 38 13
2.50961 -1.28701 -4.30031 66 73 32
0.0834996 -0.0845483 -3.60688 53 35 23
4.42283 0.33723 2.74768 45 47 26
-4.71804 -8.46185 -2.37281 35 44 23
1.84929 -0.658977 -4.04258 49 59 22
0.144392 -4.09863 -5.99615 24 33 12
0.404462 -3.86542 -5.96887 21 30 9
0.677448 -2.71788 -4.70594 51 37 24
-3.25987 -8.45241 0.36598 24 31 13
2.12669 -10.7619 -0.413914 54 60 22
-1.90896 -2.18633 -6.90882 83 109 36
2.21224 -1.32748 -4.26075 56 60 27
2.1083 -1.21957 -4.43387 56 62 26
-7.38077 -4.5876 1.86176 57 65 28
-0.576878 -8.53315 -6.77336 49 65 20
4.3749 -2.36804 -6.14646 54 57 30
2.96258 -6.73594 -8.08594 45 52 36
1.96148 -6.76105 -8.78568 85 61 37
2.0495 -0.744449 -4.13183 38 49 15
4.68966 -5.50887 -5.93523 31 39 18
-3.48453 -8.76347 0.421046 29 39 14
2.4465 -0.928522 -4.20633 79 68 36
-3.74596 -8.87086 0.121958 38 47 18
3.68162 -7.26243 -5.80323 36 47 15
-5.77339 -0.753361 1.29326 41 44 23
4.73455 -2.58462 -6.45122 41 51 24
2.69913 -1.2807 -3.96547 57 58 27
-0.0935252 -3.61522 -5.72183 26 36 12
-7.56083 -4.6403 1.71282 49 61 23
-6.9546 -3.39568 0.802009 51 61 27
2.23971 -8.12602 -5.04126 28 38 11
2.198 -0.736302 -3.88684 35 46 16
-2.67667 -4.27459 -3.90612 42 51 24
0.127769 -4.67915 -5.97939 33 42 15
5.07062 -2.56905 -6.65572 38 48 23
3.3395 -2.40941 -5.93796 38 38 26
-1.11633 -7.9099 -4.64012 34 37 16
5.18958 -2.91624 -6.51842 39 49 22
5.32494 -3.80742 -6.54819 24 30 16
3.75572 -4.88455 -5.92443 54 58 31
-4.58531 -8.95729 -3.5152 41 49 26
1.76972 -0.884193 -3.87294 71 53 33
4.39427 -3.71599 -6.10251 40 48 24
5.58389 0.456197 2.06021 18 19 13
-2.99416 -7.74313 1.36557 17 26 9
2.75645 -1.25572 -4.08815 44 54 20
2.20502 -11.1191 -0.268731 52 59 18
-5.94251 -6.8416 -1.72233 32 40 16
2.57729 -3.09053 -5.26038 41 44 23
5.54146 -0.671306 -0.0193973 24 30 18
1.50688 -8.73345 -5.12102 27 36 17
-1.6435 -2.75163 -6.6369 41 54 24
-2.3406 -10.0106 -1.97568 36 45 18
5.95631 -3.76193 -6.55836 53 61 37
-4.12838 -0.00858674 1.48622 42 46 21
-2.00448 -2.23779 -6.86582 37 47 22
5.24505 -3.80888 -6.53509 22 28 14
-3.11499 -9.05168 0.497554 46 58 22
-2.28078 -0.741231 -7.0312 44 34 22
2.24901 -2.21054 -5.11575 55 60 28
0.787511 -3.58149 -6.31958 58 46 30
4.78278 -3.65729 -6.51659 25 32 16
2.57344 -1.35602 -4.62298 71 78 27
4.94447 0.307146 1.79093 12 15 6
-0.811933 -8.54803 -4.45805 41 42 24
-4.96335 -8.24846 1.53157 32 41 14
-4.19262 -0.305106 1.502 51 51 25
1.3516 -9.55265 -2.929 32 42 17
-5.26579 -0.720328 1.38712 48 52 29
2.11368 -8.03472 -5.12084 22 31 10
2.7178 -1.15926 -4.1157 40 49 18
0.75525 -6.3844 -8.06892 27 30 23
1.31782 -5.55188 -7.61409 51 44 26
-5.97277 -0.759219 1.62208 70 75 35
4.97353 0.0813804 1.63544 14 17 10
