ply
format ascii 1.0
comment Created by Open3D
element vertex 1326
property double x
property double y
property double z
property uchar red
property uchar green
property uchar blue
end_header
0.832599 -3.41713 3.82352 180 69 58
-1.60686 0.694532 -2.43 210 72 43
-1.20847 0.864031 -2.75182 200 77 43
-3.02249 -0.000992482 -0.771141 178 36 22
-0.799198 -3.0522 3.69294 156 84 62
5.98532 -2.87561 1.39197 190 68 31
4.0843 -2.62763 2.72205 195 67 28
2.59057 0.324696 -2.96984 125 49 25
4.84997 -0.371834 -2.00186 168 69 46
-2.9731 -3.51559 1.53096 179 80 61
-3.26769 -0.0812274 -0.081559 145 37 27
0.019123 1.81465 -2.91928 164 39 21
2.27483 0.69438 -3.20548 142 81 26
-3.35961 0.658803 -1.32753 144 26 16
-2.08333 -4.03223 0.123045 172 88 60
-0.682143 1.10769 -2.86635 205 117 81
-1.06254 1.5795 -2.78009 202 107 77
-2.55124 -3.86726 2.03638 203 105 78
-1.09157 0.754835 -3.01274 214 93 64
3.7321 -0.543769 2.64925 155 38 18
-2.7925 -2.58858 2.26874 168 41 32
1.92926 -3.95852 3.4155 214 96 66
1.59767 -1.87513 5.42421 165 94 40
-0.158106 -1.86794 4.10063 186 66 29
-1.24184 -1.63453 3.48288 218 99 69
4.87939 0.14272 -0.308136 132 44 22
-2.81998 -2.43266 2.93792 156 38 26
2.0457 -2.52943 4.25292 178 58 24
-1.94472 -3.57824 2.13032 118 20 17
4.20123 -0.105236 1.55911 141 29 17
1.06072 -1.4637 3.01556 180 65 36
-0.830742 -2.48528 3.80036 183 69 33
-0.0544609 0.790047 -3.20307 161 40 21
-1.37881 -1.2617 3.65476 184 69 38
-1.86941 3.77133 2.89713 174 50 22
4.59672 0.479809 -0.62989 137 46 25
5.13729 -4.07449 2.99466 169 43 20
-3.2917 -1.51067 1.70914 122 44 24
0.234877 -2.08264 3.36292 187 69 41
1.2364 -3.29448 4.22673 137 62 57
1.02795 1.35573 -1.94114 153 58 40
-2.9507 1.52357 0.402908 148 53 31
-3.06978 1.84428 1.11802 150 56 28
2.39158 0.26075 -3.29838 172 97 55
-2.90876 2.57679 1.11964 137 40 24
-0.0138694 0.779563 -0.960257 153 50 35
-2.15208 -2.92845 1.76 174 83 62
1.52161 0.737809 -3.85749 161 58 41
0.144269 -1.7749 3.77712 178 72 56
-1.10121 -1.36673 1.74692 164 57 39
-2.92627 -0.537397 -2.1487 134 37 28
-3.20875 0.970764 1.22849 148 48 24
1.84056 2.41184 -1.72247 146 54 29
-0.186369 -1.81522 3.81964 153 43 26
4.21521 1.0548 -1.75225 123 21 16
-1.79365 2.48355 -1.13836 126 37 21
-1.70054 0.280203 0.0417983 144 33 22
-3.18633 1.46108 1.09745 144 44 21
2.02488 2.67362 0.880196 137 28 21
-3.5626 -0.839892 -1.4734 169 38 18
-2.70408 0.529675 -1.03224 219 123 101
-2.2598 0.919914 -1.49708 214 128 95
-0.817434 1.3515 -2.73595 215 120 92
-2.21983 0.656702 -1.42515 181 89 74
-2.68411 0.402834 -0.626366 159 92 50
-2.53459 0.666816 -0.987848 155 80 57
-0.604585 1.31926 -2.62482 181 105 82
-2.40163 0.977708 -1.20312 155 76 59
-2.3842 0.776541 -1.09149 161 95 71
5.08647 -0.553384 -1.69376 165 70 50
-2.37402 -3.04732 2.31806 120 27 19
-3.11935 -0.262966 -0.0803076 138 43 37
-2.78228 0.00358335 -1.40845 191 55 33
-2.22405 0.116704 -2.35339 198 63 34
5.81016 -2.86451 1.36635 141 42 21
2.77625 -0.215123 -2.62155 138 81 28
3.29342 -0.662524 2.17422 159 38 21
-2.66241 -2.67635 2.32799 153 35 25
3.39918 -0.298283 -2.36029 134 21 13
-3.22562 0.768234 1.48556 160 69 38
-0.50807 -3.05836 3.81721 127 70 61
-3.53747 -2.39953 -0.506337 172 72 48
5.31173 -0.60583 -1.54441 165 71 46
5.11791 -0.396832 -1.83952 165 69 45
-2.66365 -2.49864 1.34023 177 78 57
5.60539 -0.699915 -1.16464 176 76 52
-1.47776 -4.39957 2.65079 172 80 59
-3.38431 -2.37393 -0.00119134 185 73 53
-2.664 -1.99728 0.800442 169 69 46
-2.7859 3.08422 1.25337 142 43 24
-0.0460635 1.02019 -3.59004 147 50 34
1.56686 1.55399 -1.29871 158 62 40
-3.12919 1.94106 1.84477 124 35 21
3.86737 0.701224 -2.95382 142 85 40
-3.5565 -2.74454 0.475368 170 65 35
-2.87552 -1.68518 0.0755962 165 60 39
-3.34433 -2.93284 1.01609 173 79 45
0.183672 0.881905 -1.13891 172 76 52
0.567889 1.10892 -0.930408 145 75 50
0.535984 -3.2753 4.17845 157 82 76
1.23307 -3.29422 4.21864 122 49 43
-1.98413 -4.05066 2.39693 181 84 65
4.81313 -1.00681 1.19548 110 58 45
-0.16575 -3.03214 4.11768 127 63 54
2.06765 0.780486 -3.2717 139 80 36
-0.230749 6.70285 1.58584 128 76 55
2.01117 0.262579 -4.15131 140 84 37
5.00864 -0.549093 -1.88298 173 70 51
2.03282 0.975055 -3.02321 136 72 37
0.520439 1.1792 -3.5324 140 48 27
1.55992 1.59499 -2.87135 154 62 39
0.332795 -4.829 3.18358 174 85 67
5.40675 -1.15073 1.71756 134 29 26
1.65954 1.48807 -1.97812 158 61 42
-0.236469 1.09289 -2.61274 128 30 21
-3.10921 0.650749 1.25683 148 43 22
-3.13888 1.82116 1.6156 154 49 20
-3.07976 2.1694 1.87387 144 44 20
-1.58279 2.90735 -1.28713 113 48 28
-1.43621 6.26441 2.07686 125 33 18
1.18615 6.7514 1.50242 122 63 29
-1.1398 6.38687 1.92073 133 38 20
-0.188606 -3.03702 4.08211 150 80 68
4.93981 -1.54282 2.37178 141 79 64
-0.792014 -3.04956 3.40865 98 44 34
4.33541 -2.56519 3.25834 135 19 19
-1.79941 -0.00523922 -4.20929 153 47 25
-2.17221 -2.7782 3.07084 126 20 20
-2.83718 -0.347199 0.116345 173 59 32
-2.86046 1.88877 0.00620631 175 79 41
-4.429 1.65647 -1.82699 173 47 33
-3.34729 -0.829423 0.743878 162 60 38
4.34168 0.95244 0.0641556 151 57 23
-3.50081 -0.314582 -0.383553 164 32 20
5.23408 -0.235554 -0.163144 154 59 29
2.43008 1.49204 -3.30753 145 31 20
-3.55612 0.159455 -1.49892 162 30 17
-5.62173 -0.360896 1.36962 143 26 17
6.34289 -1.61639 -0.170345 137 49 27
-4.38637 1.33707 -1.02155 131 29 17
-3.94604 0.588704 -1.33167 146 23 16
0.994472 -0.739272 5.50913 138 67 25
-0.398666 -3.02101 3.98719 137 74 59
4.07291 -2.48205 3.6373 139 75 66
4.92447 0.879 -0.905388 153 67 50
3.67083 1.58212 -1.47991 157 59 34
2.52262 2.01328 -2.22996 153 60 29
4.37379 -2.30125 2.96111 129 21 19
2.46921 1.02186 -3.19206 144 41 26
-2.48199 0.199132 0.876438 178 68 41
5.46464 -1.73158 -0.560997 177 85 60
4.82986 -1.00108 1.21478 110 58 45
1.83253 1.55196 -1.49231 162 65 46
1.79262 1.61683 -2.9626 164 90 53
-3.1363 2.08931 1.80671 155 61 33
-0.202123 3.08741 -1.46985 136 61 30
-2.71321 3.46164 1.35128 141 40 22
-2.80309 -0.502665 -1.94057 142 34 24
-3.2984 -1.3628 -0.808759 149 39 24
1.19327 1.23037 -2.67398 159 56 37
-3.19589 -0.0105675 -0.408152 146 62 51
-2.01886 -3.14119 3.02707 212 107 86
2.77047 -1.6219 3.18719 199 65 27
-0.974772 -2.16072 3.21026 193 78 51
3.48741 1.28134 -0.728848 162 64 37
4.95066 -0.160361 -0.899564 163 69 43
3.22999 1.97422 -1.34419 156 62 36
5.75315 -2.64852 1.41169 179 54 24
5.79498 -2.79601 1.08623 195 82 50
1.48834 -1.77805 5.14163 188 109 53
0.549976 -1.26231 5.35261 161 95 43
3.92794 -3.45808 2.86874 202 68 30
4.72968 2.45735 1.37188 164 83 38
-3.87758 0.23234 -0.761878 152 26 14
-2.77066 -2.1099 -0.118439 134 22 18
-2.53017 -0.846714 -0.916335 158 30 19
-0.497275 -1.34525 5.00974 194 88 46
3.66409 0.506394 -2.89445 151 36 17
5.26882 -0.384821 -0.201596 154 48 22
5.45159 -1.10223 0.222099 167 75 60
5.75358 -2.28912 -0.207151 198 110 88
-3.30447 -2.63676 0.142048 177 90 63
-0.169508 0.950633 -3.69073 153 42 25
2.69096 -3.34768 3.82445 142 24 24
-3.148 -1.661 1.05806 145 31 30
0.912159 6.60887 1.60218 145 45 22
0.872002 5.47303 0.948591 139 36 17
-1.52359 2.00459 -0.629531 156 56 30
5.49471 -0.787342 -1.65701 154 90 78
-2.54106 -2.2472 2.4672 156 92 80
-3.2093 -0.610983 0.376364 169 59 44
4.51485 3.27739 0.959237 143 56 28
2.41429 0.531016 -3.52715 136 81 27
-0.717119 0.956839 -2.97205 164 55 32
0.61427 1.10215 -3.8547 152 38 27
2.25565 1.11391 -3.50329 137 33 22
-1.05268 2.96949 2.67422 142 41 21
-0.502354 3.11529 -1.01921 151 68 34
-3.08476 -1.2378 1.03024 177 85 72
1.31551 -3.2602 4.08272 160 87 72
-2.43161 -0.408518 -2.22425 192 104 84
5.2905 2.49342 0.342082 161 86 44
0.533332 1.07472 -4.00727 158 49 29
-1.01228 0.918986 -2.8042 165 61 32
-0.171179 0.954481 -3.70651 163 52 32
-0.276703 0.757882 -1.06406 162 95 66
4.77875 -2.36577 1.69734 146 35 28
-1.25407 1.65764 -2.07481 164 79 42
-1.76797 1.08442 -1.77684 176 86 51
5.57167 -2.12448 -0.755388 148 40 30
-1.44206 1.09419 -1.60749 166 58 32
-3.42351 -1.41692 0.735886 146 32 22
-2.50783 1.47121 0.0717502 162 72 37
-2.5078 -3.76763 2.02466 182 92 68
-2.30467 -3.82036 -0.0994843 126 20 20
-3.24008 -1.02806 -0.568607 176 68 39
-0.497944 1.51631 -2.49761 149 38 21
0.812531 6.23934 0.938542 133 45 21
-2.50711 -2.7113 2.32636 141 38 33
-2.86433 -1.52123 1.24795 182 82 59
-2.93736 -1.23923 1.99724 179 87 46
-3.0386 -1.04865 -1.82695 175 71 44
-1.7534 0.358228 -2.43702 158 43 25
-0.921896 0.728678 -3.25126 131 27 16
-2.89349 1.6937 2.06598 173 81 44
-3.14536 0.709234 1.97455 164 80 33
-2.43196 -0.0230929 0.7324 161 50 23
3.02725 -2.86302 3.9068 141 81 71
1.42163 1.77955 -2.2862 78 40 21
1.17053 1.87402 -2.73331 128 34 26
2.17506 0.817908 -3.74079 127 40 23
-0.841802 -3.01867 3.74485 150 88 75
-2.92047 -1.95828 1.03195 185 85 61
-1.42026 -2.84885 3.54013 144 64 57
5.35702 -1.20661 1.41414 126 24 20
-2.68407 1.87913 0.217277 178 88 54
-1.94887 0.227947 -3.01694 174 53 36
1.36839 1.02367 -4.35845 136 41 21
-2.56287 -3.15235 1.67025 130 27 22
0.738984 1.68536 -0.995941 132 28 17
1.70668 1.2082 -3.61717 147 51 26
-2.64103 1.27752 1.42633 163 60 29
-1.00509 0.649424 -3.6238 130 26 15
-2.93078 3.67069 1.27787 150 52 17
-2.81132 4.90712 2.02337 157 48 27
2.26437 1.56527 -2.80487 150 56 28
2.84453 -3.01535 3.90399 154 76 63
-3.19134 -0.610331 0.335587 169 59 44
-1.86609 0.360792 -1.48547 184 92 69
1.30851 1.16742 -3.85924 151 41 26
1.07351 1.60168 -1.08603 144 32 21
-0.319241 1.47994 -3.5655 163 62 32
3.88075 -0.20601 1.24591 156 59 27
-2.28263 -2.55493 2.89239 144 57 50
4.06988 -0.403782 1.57821 158 62 37
2.5381 0.853425 -3.70092 145 39 25
-2.02132 -0.0511549 0.644944 148 35 21
1.40896 6.25733 1.53441 136 61 32
0.93785 6.18596 0.993889 134 51 19
-2.51224 0.413087 3.57627 168 77 33
-2.36305 1.93165 -1.06065 138 40 15
-3.69247 3.58819 1.3449 154 57 22
-3.03719 1.43392 1.09475 141 40 20
-3.11585 1.08692 -0.552719 181 90 46
5.34726 -1.22541 0.825971 125 23 18
-3.22883 1.41526 0.462002 141 39 17
-3.04611 1.71244 0.513856 146 46 22
-3.1054 1.54984 0.608439 149 44 22
-2.22099 -4.16824 1.94824 193 103 79
-2.8824 2.57932 1.14276 150 50 27
-1.60204 -4.29749 2.70527 178 78 54
4.88168 -0.420012 0.032617 139 58 41
-1.37899 0.924486 0.300893 143 33 20
-2.99248 -1.97448 1.19809 164 54 29
0.850268 1.0701 -4.06475 154 63 34
5.36121 -1.42383 0.416091 141 29 25
-2.66696 4.27131 2.1622 147 40 22
-4.44646 -1.84137 -2.31018 169 53 28
0.968602 5.58057 0.466435 138 54 20
1.69942 1.96829 -2.5534 152 67 38
-3.17794 2.27883 2.63384 152 48 23
0.135902 1.45881 -2.99028 141 39 24
0.502733 2.98575 -1.58394 127 40 20
-1.69971 2.62794 -1.00237 126 34 19
1.11191 6.35057 2.26618 128 39 21
-2.7384 1.53909 0.314522 137 37 21
-2.95144 1.81568 1.31917 150 49 21
-3.23564 0.800774 1.73379 155 51 22
-2.96311 1.64212 0.303352 144 42 20
-0.0393189 1.55817 -2.9173 140 39 21
-1.09121 -3.02382 3.6406 185 110 104
1.18785 -3.36321 2.63586 130 73 43
4.59497 -1.98902 2.54631 145 78 62
0.504074 6.84535 1.62634 131 75 52
2.29369 0.984012 -0.00440295 152 54 29
1.64823 1.16146 -4.09001 148 36 25
-2.93239 -1.26543 -0.830776 153 41 29
-0.543507 0.920562 -3.2958 159 48 28
-1.16161 5.54031 2.37068 154 52 27
1.44882 2.17321 -2.84747 140 34 20
-3.51737 -1.06706 0.472281 153 37 24
0.992748 3.05923 -0.948392 136 39 22
-0.78342 2.71731 -0.643822 153 55 26
3.14485 -2.95488 3.83689 140 83 66
-2.26243 -4.54548 2.3733 166 51 32
-2.79155 -0.345633 -1.7652 151 72 41
-3.01746 1.37008 0.409366 127 49 26
3.48452 -3.25596 3.69705 113 28 23
-3.46659 -3.06047 0.4796 163 47 24
-2.30392 -0.186311 -1.38186 145 45 29
-1.71553 0.349071 -0.428813 162 48 24
-0.858935 0.0135902 -3.55051 156 49 29
-2.39236 -2.92542 1.91031 155 38 18
-1.95539 0.777559 -1.22667 131 40 22
5.45343 -0.947618 1.45268 119 22 15
-3.3447 -2.47747 0.599165 130 28 16
-1.99687 -0.972672 0.72892 163 46 28
-1.9527 -0.68866 0.503571 161 46 25
1.33898 1.51222 -2.81286 104 15 9
4.17137 -2.74907 3.35258 111 23 19
4.3639 -2.31417 2.01489 107 16 15
3.01479 -4.45898 2.6339 124 27 20
3.74908 -2.80555 3.51224 144 84 76
1.54668 2.13846 -2.52739 93 30 25
1.66401 1.91382 -2.33881 61 25 13
5.36736 -1.5206 2.19779 121 18 13
-1.07793 1.9223 0.039131 147 37 20
2.45825 -3.26139 4.03549 107 16 13
1.83098 -3.9703 3.65529 118 25 18
-2.6295 -0.861089 0.035569 146 36 19
1.85697 1.89984 -2.8158 91 12 7
-2.51444 -0.146515 -0.962903 116 27 13
5.76404 -0.841628 2.31961 150 36 35
2.7174 0.381139 -0.284773 108 14 12
-0.295666 0.273625 -2.36988 132 41 36
2.40178 0.595134 -3.39283 116 32 22
1.13842 1.09925 -3.8852 109 31 27
2.43962 0.839664 -3.28071 104 25 21
2.34488 1.13206 -3.80634 105 22 18
2.28185 1.32372 -4.21052 94 20 17
5.49839 -0.652056 -1.10864 94 25 18
0.498626 1.11628 -3.21317 102 13 15
-0.51325 0.340946 -1.72142 109 15 15
4.68525 -0.389461 0.105594 97 18 13
2.6289 0.69801 -3.65343 123 37 24
-0.600444 1.57438 -1.68187 115 31 20
2.56196 0.428301 -3.72704 98 53 20
7.7011 -2.82788 -0.3564 171 73 34
-2.53464 0.469241 -1.09721 204 117 97
-2.70353 0.134831 -1.36155 206 85 58
-1.43477 -2.82291 3.53025 132 60 46
-2.77641 0.0947479 -0.601383 166 78 66
-3.01618 -0.371517 0.0365878 147 66 45
-3.1249 -1.68108 1.07546 129 24 21
-3.18785 -0.967613 0.273796 132 21 14
1.9955 1.22627 -2.50352 139 40 21
-2.96525 -1.81267 1.24744 124 16 16
-2.40443 -0.927444 -0.539482 134 19 12
-2.70063 0.0958822 -0.610221 171 75 51
1.52968 -1.82226 2.81065 194 79 50
4.87517 -1.15191 0.928869 135 31 18
1.80178 -1.56558 5.36703 167 96 42
2.70176 -4.00449 3.29453 196 76 49
-1.79489 -4.45149 2.33918 172 69 50
1.50542 -1.77298 5.20005 175 100 45
5.61785 -2.72958 1.61573 174 53 26
0.704896 -1.37002 5.18273 157 83 34
3.58536 1.15908 -0.258101 166 55 28
5.09916 -2.0595 3.44224 160 47 17
5.27987 -0.697709 0.78186 144 44 18
-0.133047 -0.968506 5.30912 183 88 42
5.0931 -2.05902 1.4912 179 54 24
4.46658 -3.74375 3.21991 174 49 21
4.58726 0.258544 0.750684 143 38 17
0.633478 -1.82406 3.7974 182 54 25
-3.43483 0.642526 -1.68227 154 31 16
5.76493 -1.32451 -0.0684812 140 44 19
-2.7663 0.181243 -1.38212 206 85 58
1.95111 -0.191774 -3.49304 180 102 100
1.34646 -1.19594 5.19884 169 98 44
1.19661 -0.919501 5.29257 137 70 27
0.130598 -2.79847 3.32232 214 93 66
1.33568 -1.42994 5.49093 168 97 43
-2.72308 -2.60452 2.25126 135 32 25
4.57044 -0.181571 -2.49284 183 84 61
1.61184 -1.3104 5.54521 168 92 40
-3.093 -2.23861 0.753533 158 31 22
3.52048 -0.106391 1.90161 150 34 19
2.92412 -1.18492 1.95249 171 57 31
2.6703 -0.653922 1.78213 173 57 32
-2.33556 -2.03197 3.41041 188 85 50
-3.66762 -2.03526 1.99757 121 27 19
-3.2867 -1.79456 1.68832 120 16 15
3.21697 -1.54401 3.95974 169 50 20
1.80034 -3.68235 3.93015 210 82 37
2.81045 -0.609404 1.94682 159 40 20
-3.31076 -1.6236 1.42422 157 28 22
1.17688 -3.32311 3.59003 188 64 28
0.102031 -3.90701 3.74108 192 76 37
3.8685 -0.728337 4.65673 169 51 21
0.856699 1.16253 -3.60405 155 34 17
-4.03111 0.327487 -0.776377 149 25 15
4.28732 2.73825 1.2129 138 64 29
-2.86166 -0.0602677 -1.38162 155 32 17
-1.83828 1.03585 -2.10709 233 130 99
4.10299 -0.390829 3.18272 187 64 23
0.0374077 -0.163809 2.62836 216 96 61
3.69248 1.22445 0.173447 166 47 23
5.2025 -0.0360501 -1.00423 175 98 56
3.16836 -0.800987 1.75201 189 62 29
1.3029 -2.05441 3.6826 210 77 34
4.53984 -3.59744 2.7328 202 71 29
-2.80512 -2.30235 1.86492 156 29 22
-0.182281 -3.14694 3.8688 217 100 56
-3.14405 -2.13867 2.71297 155 30 26
4.48684 -3.75467 2.84834 203 69 31
-3.71009 -1.00503 0.676236 168 35 20
-0.742888 -3.99493 3.12676 165 45 29
4.77496 -2.95951 3.50045 201 74 29
2.25983 -1.57037 3.2703 204 71 28
5.44257 -2.76029 2.30753 191 58 23
-3.10845 -2.66916 1.03351 194 95 74
3.08114 -3.30636 3.48522 154 49 53
4.38492 0.77607 -1.72451 171 83 59
-2.46182 -3.9479 1.7169 184 94 68
3.45305 0.768168 -3.44619 144 69 40
-2.51156 -2.7139 2.23224 141 39 35
5.12464 0.427004 -0.931567 158 70 46
-2.68953 -2.47539 2.28521 133 35 26
5.62476 -1.21836 0.88364 131 32 26
4.16149 -2.9182 2.88499 144 22 21
-0.840167 -3.21474 3.38897 94 13 12
-2.95228 0.382977 -1.47376 161 43 29
-3.50674 0.359182 -0.485727 131 49 35
-0.85013 1.11802 -2.90917 184 93 64
4.36024 -1.23949 2.42337 166 45 18
-3.82254 1.76586 -1.3022 159 69 45
-3.29927 -0.803253 0.775081 194 110 86
-2.82216 -2.959 2.66531 163 67 45
-3.38418 -0.807348 0.933523 145 77 56
1.71217 -1.4702 3.67948 207 74 31
-3.0426 -0.0249164 -0.217332 135 67 48
-2.36665 0.550821 -1.76753 159 37 22
-3.37132 0.654082 -0.509543 116 55 37
-2.07164 -3.78695 2.16438 116 23 18
-0.406019 -0.239108 3.83675 182 59 25
1.46327 -0.945841 2.8071 181 62 32
-3.75311 -0.059431 -0.487863 149 27 16
-3.75816 -0.207836 0.179797 143 26 19
4.94269 -2.92669 2.56241 161 40 19
5.78696 -4.13968 2.24319 178 58 31
-5.16109 -0.143407 1.82929 120 23 17
4.80342 0.00231766 0.285826 159 48 21
5.09522 0.360434 0.884817 138 54 20
-2.60039 -0.177868 -1.25716 144 32 18
-3.33125 -0.0613159 -0.459063 150 27 19
-3.299 0.981083 -1.65297 143 26 16
-1.36044 1.004 -2.5425 219 120 89
-0.995971 1.15254 -2.82067 208 111 78
-1.46472 -4.44869 2.75327 207 107 84
1.15434 -1.47407 2.82912 213 93 58
0.971293 -1.49951 2.91618 216 92 56
4.60787 -1.9175 2.57645 195 63 25
-0.0478436 -2.09301 3.47366 215 95 61
4.57505 -3.45582 3.00841 198 66 28
1.00793 -0.228085 2.758 196 64 25
-2.64958 -2.42316 1.57434 161 27 18
-1.39455 0.263892 -2.99664 186 51 21
-3.09825 -1.028 -1.42039 198 111 92
-2.26888 -2.38667 2.74522 150 82 71
0.845227 4.80852 -0.278707 152 66 33
-1.26697 0.897019 -2.99696 178 84 50
2.46526 2.60926 -1.35311 135 35 20
-0.129673 1.05561 -3.67482 164 50 26
-1.37082 4.96443 1.50165 151 45 21
-1.44444 6.18738 1.95405 148 71 41
-3.03136 -1.60117 1.60183 184 105 92
-1.80389 -0.106476 -3.05118 193 102 84
1.35034 -4.45713 2.2391 127 71 48
0.754446 -3.57745 3.46864 129 68 47
5.82945 -2.71742 -0.818147 203 115 95
5.64472 -2.64065 0.251994 206 115 97
-0.272832 0.606904 -2.30068 168 95 63
1.81034 1.50435 -3.91232 158 38 21
-1.47831 2.66776 -0.913145 172 88 51
1.51451 4.44476 -3.79033 159 76 46
-0.675164 2.86682 -1.28959 160 65 35
-1.20289 1.80177 -1.57038 163 69 35
-1.72256 4.92012 1.50834 162 68 34
3.27483 0.640521 -2.74348 179 49 25
3.79627 -3.99803 2.99302 212 94 58
6.12269 -3.19353 1.68284 181 57 31
0.506777 -1.35172 3.59318 204 73 31
5.11245 -0.0065559 -0.270478 157 59 30
1.7628 -0.81309 3.94201 192 66 25
6.48322 -2.50181 1.62022 161 41 17
4.34405 -5.10648 3.52995 196 63 28
4.01931 -2.06882 3.85758 188 62 24
-3.16959 -1.66373 1.32645 148 25 17
3.59395 2.85579 0.0728306 152 78 39
6.44356 -1.44572 -0.126746 162 80 40
-2.67252 -1.87019 1.87506 119 71 48
1.82085 1.25768 -2.16093 154 52 29
-2.97604 0.077717 -0.818924 180 41 20
1.74899 1.5781 -2.39905 136 40 18
5.55129 0.042777 -3.84252 124 28 16
4.99471 -1.52853 2.38112 156 66 55
-2.16879 0.342278 -2.24642 167 56 28
1.86144 -3.22813 3.98981 128 63 57
-3.18588 1.69183 0.946865 121 38 20
1.96771 -3.2242 4.1525 105 47 43
1.24508 1.54119 -2.09741 110 63 43
2.28745 0.515926 -3.04539 153 85 40
-1.22126 -3.19853 2.68186 163 62 44
2.42391 0.380061 -3.21854 150 77 42
2.01029 0.950551 -3.73148 137 39 26
2.14148 0.638196 -3.74761 116 48 29
2.52161 0.0893867 -3.48325 149 81 42
3.88852 1.06224 -2.17883 129 26 21
1.48926 1.4811 -2.14786 114 59 38
-0.360684 0.899403 -1.19211 132 36 24
0.199966 -4.33933 3.63785 172 73 44
-2.44602 -0.334977 1.19928 128 27 15
-3.90092 -1.49085 -1.11188 151 41 26
0.626375 -3.29059 4.11615 151 63 53
-1.65184 -2.77812 3.44126 141 75 59
-2.03235 0.0676668 -2.41841 162 52 29
4.94247 -1.28828 1.17167 162 61 33
-1.94944 -0.436332 -2.93412 174 75 44
5.13863 -1.84054 2.01168 171 77 39
2.25972 0.954799 -3.13167 152 41 22
-0.144512 0.432249 -3.85679 173 78 50
2.35585 0.898063 -3.11723 143 40 23
1.61151 -3.87701 3.39369 126 16 15
-0.414142 -3.01732 4.01456 128 69 51
-0.44431 -2.97102 4.40893 137 72 54
-3.08206 -0.178055 -0.113667 187 86 66
-0.0352362 -3.23176 4.32018 128 28 26
-3.00546 -0.670564 0.208681 145 33 29
-0.833595 0.255645 -3.53214 181 75 49
5.75327 -2.18753 1.08478 169 73 35
4.69909 -1.5045 1.73239 168 65 34
3.58069 0.0416496 1.40697 158 52 30
-2.99949 -0.490845 0.0699733 154 52 40
-0.51019 -2.3934 -1.15611 124 16 14
2.36757 1.07127 1.01057 150 50 27
1.4523 1.65598 -2.19085 130 75 54
4.98571 -0.428945 0.455821 131 78 62
-3.30628 0.682464 1.44043 130 43 24
-2.75633 1.64416 0.464902 120 39 22
1.4475 1.68166 -1.95494 101 60 42
-2.99676 2.87878 2.00811 115 29 14
-2.53321 -0.25879 -1.97995 115 25 16
-0.605696 -1.58247 2.27247 146 50 28
-0.0010864 -1.84821 3.03006 160 53 37
1.87717 0.814127 -3.7544 135 41 31
-0.573765 -0.617092 1.41064 142 42 26
0.847087 -4.06769 3.18317 97 13 11
2.00742 -3.4747 3.79297 94 13 12
0.632596 -4.61391 4.23898 141 83 59
-1.54064 2.63379 -0.709409 182 103 62
-1.00455 1.16188 -2.68299 176 69 37
-3.66572 -2.42334 1.82715 149 30 22
-1.51284 6.0353 2.21198 159 62 30
0.560551 3.02456 -1.48514 155 54 26
-3.44689 -1.1273 0.721401 161 42 22
-1.06086 2.87786 -0.261749 162 68 32
-1.49507 1.8904 -1.18812 171 83 45
-1.34136 0.906612 -2.74297 180 83 48
-1.27718 3.04843 -0.170404 162 74 36
4.97497 -2.30768 1.19981 155 38 28
4.76769 -2.17699 2.67945 155 41 31
4.94752 -2.62234 1.47205 158 46 34
3.93549 -2.50153 3.39285 129 59 49
-0.179059 -1.63237 2.63869 158 49 29
-0.556486 -1.39399 2.28638 160 47 29
-1.18472 0.229089 -3.34865 153 50 31
1.09594 1.7735 -2.73575 130 29 21
-1.52767 -0.899064 1.0828 149 42 26
-1.83078 0.774645 -1.7192 154 53 33
-1.23811 1.6951 -0.0231982 134 32 17
-1.04519 -0.132396 1.0449 147 42 23
5.22861 -1.05129 1.81718 79 26 18
-2.71813 -0.179841 -1.29042 145 49 27
5.38579 -1.35284 1.99456 110 15 11
-2.18699 -1.36265 3.03967 147 38 18
-2.93706 -0.49701 -1.44998 159 79 44
-2.80685 -0.509294 -0.361172 139 38 20
-1.90742 0.683033 0.0907732 123 27 15
-3.2364 -1.58183 -1.01721 140 43 24
-1.70321 -3.81176 2.72495 160 42 16
-1.16609 1.74608 0.0268378 137 34 19
-1.94253 -1.41922 4.11583 161 46 19
3.17752 1.54048 -2.2371 159 76 46
5.25132 -0.533801 0.996958 110 46 34
0.0703234 -2.24759 2.99051 167 57 34
-1.97314 0.250467 -0.797652 158 49 29
-0.946756 -0.826837 1.61842 148 38 23
-1.36004 1.35853 -1.20791 155 48 30
-2.27057 -3.75172 2.33764 146 35 18
-0.0914325 0.812956 -3.83054 186 107 100
4.8053 0.0324833 -1.73282 189 94 62
-1.26224 -4.48811 2.88664 208 114 88
-0.369535 0.547784 -3.68471 162 88 87
-3.0705 0.660183 -0.668677 155 86 47
5.22373 -1.89824 1.16648 177 57 32
-3.28934 -1.63611 1.16029 168 41 34
5.79395 -1.99107 0.805591 165 47 21
0.224518 -1.65933 2.909 216 92 58
1.56253 -1.69261 5.32037 171 100 46
-2.80144 -0.89376 -1.08667 173 38 19
1.25948 -1.56652 5.35407 170 99 45
-0.0640777 -1.2218 4.12156 206 78 33
-1.1076 -2.34126 3.28459 214 97 64
-1.37135 -1.73706 3.18058 219 91 62
2.78777 -4.47555 4.22674 207 81 40
-2.95605 -2.23925 2.04561 155 27 24
5.40299 -2.42621 3.08302 180 51 19
4.85576 -1.73462 2.69263 166 71 65
1.88505 -3.22776 4.0405 185 108 92
-0.819772 -3.05403 3.37436 139 53 38
5.39958 -1.17875 1.49787 141 34 24
1.02806 -3.18643 4.00899 176 80 66
0.0298357 0.968577 -3.64555 194 69 49
5.57887 -2.26622 1.12842 192 75 57
-1.01364 -3.20557 3.70504 123 17 19
1.94899 0.890227 -3.76579 189 76 46
-1.48693 -3.10369 3.50331 177 39 37
-0.0795747 -3.1769 4.05642 169 35 34
5.42014 -0.871792 1.56237 133 37 25
-1.23959 -2.75675 3.27219 200 108 87
-0.585976 1.50785 -2.83179 218 129 95
2.3676 -1.30563 -2.98589 190 103 94
-3.98043 -2.26138 2.94623 211 106 85
5.47296 -1.96018 1.07427 172 52 27
-3.23768 -1.6487 1.16469 165 34 26
-4.6542 -0.164326 0.219116 166 36 20
2.04126 2.43136 -1.33253 193 89 54
-1.66853 -4.35659 2.60974 200 104 80
4.24926 1.23732 -1.12207 181 102 59
-5.09532 -2.18774 1.72975 202 108 82
5.58029 -1.72301 1.26724 166 40 18
4.40669 -3.84089 3.2608 198 64 26
5.69125 -0.612044 -0.473226 165 67 32
4.09288 -3.22595 3.08098 203 70 29
3.70479 -3.6402 3.34007 200 66 28
5.21314 -0.731352 0.8941 161 41 16
-0.680281 -2.58572 3.68173 211 84 43
4.9785 1.13729 0.165702 160 86 39
3.27608 1.20578 -2.48986 192 95 63
-0.636539 1.34746 -2.80544 177 47 34
0.469793 1.24901 -2.74693 188 51 35
-2.7795 0.230216 -2.64706 197 70 38
1.49756 1.17306 -3.8312 184 64 48
-0.733816 -2.92485 3.17174 123 59 49
-0.842214 -2.82788 2.85755 119 62 43
2.06842 1.4069 -2.54717 188 64 40
-1.57639 0.632402 -2.83356 190 49 32
-1.73513 0.446642 -2.72994 187 49 36
-1.2773 1.12569 -2.49614 189 52 33
5.08272 -1.49053 2.09376 177 46 38
5.52704 -1.48132 2.04243 185 51 40
2.19249 1.21234 -3.02018 182 61 42
0.889212 -3.31696 3.78523 169 24 29
-2.77511 -0.537055 -1.9272 205 83 59
1.78774 -3.47177 1.96505 179 40 35
4.3515 -2.39126 3.35369 179 93 80
4.52893 -2.20693 1.4796 173 38 32
-1.66698 0.394593 -3.16181 185 52 37
-1.38772 -3.14662 3.69573 165 35 35
0.71662 -3.71089 3.36863 170 27 29
-2.69257 -1.26982 -0.197144 190 68 45
-2.94074 -0.849553 -1.44577 193 67 44
-1.81009 -2.50476 3.71172 199 85 51
5.6351 -0.627826 1.02607 174 46 35
-2.31539 -0.0113267 -3.12382 182 55 38
5.62508 -1.16 1.41297 177 46 36
-2.12372 -2.66346 2.5428 206 120 97
0.688335 0.843389 -3.53998 181 64 46
-2.01051 0.902276 -1.81463 217 127 92
-2.54167 -2.27489 2.61943 145 69 56
2.74132 1.4372 -2.72964 150 50 27
-2.50057 -2.71768 2.31004 141 39 35
-2.01474 -3.86029 3.68592 188 98 74
-3.07635 -0.705008 -1.40074 175 66 37
-3.33721 -1.39674 -0.438779 186 93 59
-3.1127 -0.716963 -2.41678 175 66 37
3.02358 3.57996 -3.80605 134 71 27
1.95043 0.882901 -3.56111 160 62 35
3.13033 2.22439 0.332272 150 49 29
2.37278 1.65634 -1.98388 147 47 24
-2.7031 1.55809 0.387438 164 64 32
-0.674943 0.773096 -3.82646 151 35 22
-1.41558 0.332293 -4.78945 153 36 19
-1.2016 0.906764 -2.52099 219 120 89
-0.342859 1.18095 -2.90768 200 75 43
-1.67311 -3.79812 2.55328 162 36 24
-1.58424 -4.38741 2.56485 197 92 62
-2.16831 -4.11706 1.98917 204 110 82
-1.08525 -0.109112 -1.97185 194 56 27
2.4115 -0.212926 -2.09962 191 113 109
3.00826 0.834642 -2.04445 118 14 15
3.07141 1.23107 -3.98229 103 25 21
2.792 0.880289 -3.35372 117 26 23
2.16039 2.27995 -3.17566 117 24 17
4.24103 0.169604 -2.6626 111 31 22
1.03021 2.14064 -1.81283 113 24 16
-1.04935 2.51892 -0.943591 133 53 30
1.56125 1.06405 -3.50962 94 10 10
2.60245 0.625201 -3.74853 100 44 17
2.83954 1.11985 -3.88197 96 15 11
3.80216 0.63098 -3.35914 110 23 16
1.15505 -0.203719 -1.30002 105 11 11
5.42812 -0.663413 -1.75912 147 81 69
1.18949 -4.6707 3.48721 217 116 88
-2.45293 1.0175 -1.17227 190 112 74
-2.30007 0.561443 -1.80526 210 76 47
-2.46743 0.719155 -1.00046 197 103 75
-0.112818 1.07302 -2.94001 208 78 46
-2.98786 0.0737914 -0.452245 143 67 43
-1.50726 0.542312 -2.74676 196 58 29
-3.41878 -1.6464 1.3514 158 30 21
-2.61582 -0.108628 -1.22057 185 49 25
-0.833441 0.91256 -3.283 189 54 24
2.13269 0.207326 -3.43991 107 64 29
0.424287 1.05276 -2.4273 116 16 16
-0.117704 1.43389 -2.82097 110 19 18
2.07383 1.60917 -4.75235 118 39 34
2.34355 0.707819 -3.57739 115 33 22
2.5111 0.237746 -3.97533 112 66 30
4.69354 0.362996 -2.55667 92 17 12
2.04408 0.657332 -3.45825 121 37 27
-0.187436 0.663868 -3.839 143 63 54
1.42292 1.12122 -3.44503 103 11 12
-2.9666 -3.34836 1.01101 197 117 92
-2.62658 -3.68782 1.88053 194 108 81
0.0833434 0.953624 -4.08887 154 42 28
-1.00055 2.83742 -1.07736 151 51 25
-0.954249 0.835132 -0.281748 168 57 38
-2.17487 -3.05119 2.71112 127 19 19
1.14603 3.17633 -1.52524 140 45 25
-2.57079 0.161002 -0.301966 172 69 34
-2.62022 -2.58036 2.28035 129 27 23
3.52627 0.941675 -2.28386 175 85 61
-2.6776 -3.53593 2.28164 190 94 70
-2.87067 -3.53938 0.981761 194 99 79
-2.95214 -0.608918 -2.56013 177 69 41
0.697211 2.02197 -2.32477 152 36 23
-1.23856 4.55601 0.705446 150 70 47
-0.391131 4.6889 -0.100532 157 71 48
-1.0337 1.05685 -2.89649 157 40 23
2.06069 1.13828 -2.54873 169 73 48
-0.155183 1.273 -2.76004 150 33 23
-2.36557 0.974761 1.24791 171 63 34
-0.726555 0.686024 -1.91316 161 55 33
0.710317 1.10194 -3.86407 150 38 26
-2.89776 -0.890925 -2.09728 177 69 41
-1.6682 0.246676 -1.69375 169 60 40
5.33937 -1.34005 2.19727 135 26 23
2.43369 1.80807 -1.27068 146 43 26
-3.03085 -1.17184 -0.692269 182 76 54
-0.894576 2.00202 -1.07604 140 38 23
4.29716 1.19722 0.346245 177 78 57
3.6347 1.30446 -0.378475 171 76 54
2.4277 3.10053 -1.21848 142 55 28
5.08338 -2.55985 -0.118863 146 35 28
-2.29234 2.67418 1.26227 161 73 37
1.81152 1.31429 -3.19556 134 34 19
-3.04835 -1.70683 0.838676 140 28 24
2.27807 1.18584 -3.43403 129 32 16
-2.45074 -2.95383 -0.175846 131 23 20
3.20676 2.54441 -1.95051 136 46 20
4.51963 -2.32408 2.62202 142 27 22
3.14078 0.540591 -5.18534 132 32 16
5.65933 -2.08174 0.827133 175 78 59
5.42175 -0.25423 1.04924 117 56 35
0.680347 2.79694 -2.2547 139 38 18
0.367627 1.54976 -0.841582 156 45 25
1.93818 2.95166 -1.70597 134 37 20
-1.70314 0.733644 -2.80619 148 31 22
-1.39535 0.888115 1.53924 161 44 24
1.96151 2.64166 -1.8993 150 66 32
1.97486 0.724969 -4.07987 142 50 29
-2.96646 1.8371 1.16793 181 93 55
0.808045 1.2455 -1.02767 149 49 33
-2.87995 -0.511957 -2.15831 142 35 25
-2.65782 1.88901 1.35163 154 54 30
-3.20828 1.4028 0.810996 170 76 38
0.917238 5.69971 0.826486 141 56 27
-1.34377 0.496873 -2.67465 141 30 21
5.77275 -1.26648 1.99732 131 24 18
-0.396898 6.5274 2.55699 128 33 15
-2.04618 2.55182 -0.417421 136 40 15
-1.74132 1.53104 -5.97415 124 33 12
-3.05602 1.59486 0.634885 138 43 15
-2.53766 2.62769 1.38935 137 38 17
-2.03611 3.52165 3.12441 141 38 21
-2.95769 0.797669 1.79133 149 47 24
1.8204 -3.06666 1.06557 88 51 43
-2.00679 -2.14085 -0.513239 145 24 16
-2.00662 0.862227 -1.81031 156 72 48
-0.996683 -2.44481 3.50435 204 106 81
-4.37443 0.872445 0.875154 150 70 45
-1.85512 0.996738 -2.20437 168 61 41
-3.86167 -0.891454 1.58411 141 32 27
2.76911 0.874841 -3.10832 138 22 9
-2.82925 0.419329 -1.13613 139 27 15
-2.86415 -0.606906 0.400571 164 96 73
2.3965 0.855172 -3.41649 166 57 36
1.92894 0.983647 -2.78721 154 80 31
-2.89554 -0.134318 -1.47074 159 36 21
0.228399 6.84122 1.64416 118 68 45
-0.792935 -4.71403 2.88167 183 93 69
-0.759684 1.07374 -2.28298 135 31 22
-0.0208771 0.914142 -1.9886 146 43 28
-2.72969 1.70968 2.40687 159 51 23
1.10086 1.89286 0.783333 136 27 20
-2.0996 0.161868 -3.11134 131 30 22
-0.822557 2.8591 -1.27436 128 41 22
1.46096 3.08197 -1.31986 142 63 32
4.99842 -0.200632 -1.01468 132 27 21
-2.85361 1.84933 -0.200825 134 37 20
-2.59486 3.61066 -1.25234 129 47 26
-2.909 -3.39622 1.2906 179 79 56
4.2146 1.26672 -1.5305 122 72 47
-2.99663 1.64353 0.618647 152 58 30
2.68383 1.80832 -2.11257 156 62 37
-2.88852 2.57616 1.12326 145 45 29
-0.518598 4.6375 -0.048862 138 78 54
-3.34495 -2.53276 0.166818 172 67 48
-3.04474 1.8226 1.21848 148 52 30
-1.30329 0.527112 -2.45007 126 25 17
1.2243 2.09634 -2.45334 151 62 32
0.247286 1.79511 -2.78554 153 63 36
4.59041 0.778511 -1.52624 142 31 22
0.754894 5.6356 0.859795 135 51 25
-3.10047 1.5722 1.18757 141 40 22
-1.27732 1.69713 -2.19483 126 37 23
0.621374 1.08443 -3.76529 199 74 56
0.288277 1.03072 -3.82097 144 42 28
-2.90256 -0.550743 -1.98189 163 55 27
-2.83111 -0.499823 -2.01818 162 54 28
4.67337 -2.23164 2.77128 157 32 30
-3.25085 -0.906284 -2.12407 180 72 43
-2.45295 0.175897 -1.75282 172 55 35
1.84735 0.886303 -3.72894 188 79 50
5.1287 -1.82272 2.49574 182 43 36
4.24764 -2.49254 0.307546 174 43 33
0.467369 -3.46658 4.04804 137 17 18
-3.18793 -0.833022 -1.33316 206 94 54
1.52814 1.39609 -3.91427 184 64 39
4.20283 -2.43097 2.94819 174 32 31
5.40112 -1.37136 1.75347 180 48 35
-2.64829 -0.364789 -2.46433 98 53 47
3.01984 1.73138 -4.10772 94 15 11
1.25039 1.1103 -3.857 127 46 42
0.450298 0.911366 -3.58167 124 45 40
4.69723 -0.889008 0.770413 85 17 14
2.57388 0.468666 -3.93156 94 55 26
1.84805 1.5064 -3.81782 95 11 9
-0.695402 0.348047 -3.58248 143 54 48
2.43904 0.457695 -3.64828 88 51 25
-0.707756 0.661302 -3.43538 108 23 20
2.13467 0.61904 -3.41108 108 31 25
4.34503 0.394246 -2.56035 84 14 14
3.53343 0.666269 -2.959 89 15 14
2.53256 0.192441 -4.22002 89 52 26
-2.42726 -1.49621 1.43756 98 12 15
2.27824 0.66583 -3.6205 96 44 23
3.62757 0.537258 -2.90429 82 14 11
4.26348 -0.476519 -1.99367 103 9 10
2.32149 2.69177 -4.32555 86 15 9
3.50781 1.58658 -4.76556 85 14 12
-3.12147 -2.75674 0.887176 188 90 61
1.5382 0.846523 -3.77484 170 68 45
5.97626 -0.12632 -0.702059 165 82 42
5.04353 1.02004 -1.48524 174 76 41
0.191921 1.20831 -3.14925 141 38 23
0.794928 1.2104 -3.6566 143 45 20
-3.19927 -1.635 0.640308 173 74 35
-2.61927 -1.01025 -0.101745 169 67 42
-3.3115 0.869835 0.921956 166 73 32
5.21559 -0.920462 1.51048 97 46 29
-1.92974 -0.975603 3.78613 182 81 53
-2.14836 -1.63636 2.80856 175 82 49
-2.45652 -1.52211 1.9495 175 71 44
-2.43108 -1.40444 1.81706 179 71 42
-3.21924 -1.46323 -0.0891943 174 69 37
-2.60362 -1.07794 1.63015 167 62 30
-3.35559 0.838688 0.705442 163 70 29
-1.74838 0.334185 -2.78186 137 31 17
0.772434 6.34884 1.02114 136 57 24
-1.85455 0.24662 -3.7772 136 28 18
-3.14461 2.07491 2.93977 166 69 27
-3.33343 -1.08933 -1.34183 163 52 24
-3.84519 -1.68167 -1.25967 169 69 33
0.441667 2.83485 -1.86498 136 57 27
-1.74433 2.65296 0.0488404 156 55 27
-3.20763 2.11346 2.55054 162 54 25
-2.88209 1.80872 0.348375 143 43 17
0.664658 2.6428 -2.07798 130 43 15
-3.28607 -1.81757 0.999571 187 95 70
4.49454 0.640817 -0.532637 168 89 59
-3.15134 -3.01092 -0.240481 194 109 88
5.66801 -1.97186 0.0456156 188 96 71
4.53286 1.25439 0.000253916 149 58 29
4.06541 0.902665 -0.152491 172 85 58
-0.848969 -3.0456 3.25705 102 46 33
5.31421 0.281144 0.456653 177 93 67
0.226793 1.07708 -3.48172 152 38 27
5.56162 -2.38 0.548276 188 102 77
-0.172673 4.55879 -0.886025 149 63 36
-1.63525 0.347634 -0.0166816 172 63 40
-1.41651 1.01473 -1.17505 161 44 24
-0.0778091 3.04353 -1.45927 144 50 25
-1.48753 2.91859 -0.680817 156 57 28
-1.28651 0.472881 -0.785399 168 59 38
-0.358566 1.49531 2.89508 149 35 24
-2.83264 -2.36266 1.97872 133 30 25
4.04444 1.41784 0.688393 145 45 22
-0.363539 1.17817 0.676851 146 34 22
-2.29781 0.55152 -1.8132 210 76 47
-3.06214 -2.86654 1.92219 188 78 53
5.65803 -2.08978 0.267723 178 72 46
-0.408917 1.24843 -2.98526 204 84 50
-2.81575 0.0624258 -1.43663 161 38 23
-1.27762 0.913603 -2.75914 169 50 30
-0.81702 -1.54244 3.29289 186 68 42
-3.37926 -0.627571 -0.309598 130 18 17
-0.674516 1.10917 -2.99278 164 49 31
3.03177 0.595301 -3.0313 145 29 14
5.36647 -1.10538 1.22559 143 39 30
0.399892 1.11798 -3.3121 155 43 29
4.22694 0.36431 -2.77292 175 88 61
-2.89125 -0.291838 0.473904 182 89 55
-0.970541 1.04422 -0.785401 155 38 21
-1.42354 0.182106 -3.79522 174 65 45
0.788293 1.15486 -3.64337 149 35 24
-2.9496 -0.864662 -0.538407 182 76 52
-1.60221 0.616627 0.142489 160 45 26
-1.87851 0.219568 -3.21147 161 49 27
3.57062 4.26384 -1.15239 134 71 28
-1.16214 0.66251 -2.82224 155 38 21
-2.54329 0.0330489 -0.598101 172 67 38
-0.925491 2.86501 -1.17963 149 49 25
1.42256 3.15754 -1.45327 136 41 21
5.63621 -1.35467 -0.186138 140 79 48
5.00258 0.473774 -1.40213 194 99 67
-3.24749 -1.98776 -0.0096044 179 81 54
4.41979 -1.85577 2.49079 142 78 66
5.39008 -1.15817 1.43926 165 48 38
5.49742 -1.86156 -0.29202 164 68 44
5.52103 -1.91783 -0.205197 185 88 69
-3.41869 -1.78066 -1.06093 174 79 51
5.43123 -0.867601 1.60574 153 39 38
2.75152 1.10198 -3.39175 176 83 50
5.28327 -1.5983 2.01724 138 26 25
2.42547 2.99505 -1.46825 149 62 32
-1.05699 0.628199 -4.07229 144 33 22
-3.25698 -1.23198 -1.95817 198 89 58
-2.72582 -0.910383 1.57021 178 73 41
1.45802 0.875778 -3.70003 193 89 64
4.61349 -1.92549 2.5146 114 12 10
4.37678 -2.36742 2.62983 166 33 28
-2.47056 0.00322203 -2.31771 145 33 19
-2.97103 -0.922035 0.118664 160 50 23
-2.24009 -0.699599 0.768145 170 61 38
-3.04577 1.42689 0.366681 137 36 18
2.00622 0.770721 -3.4984 168 87 42
2.01706 1.30098 -3.67406 157 58 37
0.622309 1.12338 -3.87791 173 52 35
2.69168 -2.97738 3.8296 128 69 51
5.08096 -2.46946 2.10057 181 87 62
-1.52314 5.57934 1.94313 161 67 33
-2.04671 -0.0575374 -2.34251 194 107 87
-2.53804 -0.446563 -1.08651 156 74 52
0.854799 0.875197 -3.55381 155 48 30
5.2979 -2.42285 0.31519 136 35 23
-1.38117 2.56647 -0.0844863 149 56 23
0.789463 6.28985 0.648976 148 43 22
-3.43831 -1.05136 0.626674 148 38 25
-0.490289 4.94374 0.101574 154 54 28
0.313981 6.61729 1.96994 139 36 19
-3.80508 -1.78287 1.2139 132 28 17
-1.90342 -4.21026 2.36053 181 85 61
-2.45189 -1.31663 1.25296 183 77 51
-2.29114 -1.63997 2.88688 183 89 53
-3.01271 -0.203709 -1.25026 168 52 29
-3.59021 -1.49431 -1.34424 157 42 24
-3.47686 -2.16682 -0.50388 175 70 41
-2.24293 0.204731 -2.41381 155 35 21
5.59625 -0.622073 -0.277602 146 35 24
-3.48674 -1.59301 0.0523709 178 69 38
-3.23188 1.62198 1.84111 147 45 23
-3.05749 1.02277 -0.158198 154 45 24
-3.15677 -1.97433 1.03699 181 81 47
-2.94323 -0.28391 -1.12598 157 40 22
-3.43705 2.62569 3.99222 174 76 41
2.50134 4.12207 0.437375 132 51 24
-2.05206 -0.391986 0.260772 160 49 30
-2.89647 2.29531 1.5668 141 41 18
-3.12635 -0.834017 -1.55326 156 47 18
-2.39943 3.93526 0.711644 138 40 15
-2.99632 -0.921234 0.0679303 174 61 31
0.583313 3.23305 -1.04026 128 40 18
4.85728 -0.00678029 -1.08401 148 35 21
-3.30942 1.2478 2.12377 169 66 33
-3.19967 2.57047 1.18688 156 48 22
3.21361 -2.97294 3.75295 191 103 93
4.51141 -2.00371 2.84158 149 79 67
-3.0823 -0.913685 0.830337 176 104 89
5.21336 -2.03536 2.04181 197 100 81
-3.24778 -2.22618 -0.579995 180 94 67
2.33837 -3.16416 3.9352 131 67 57
-0.511298 1.32487 -2.72155 154 50 25
-2.07121 0.942274 -1.76869 199 114 85
-2.19541 0.947677 -1.22309 171 98 65
-2.08271 0.877548 -1.67272 176 85 58
-2.78037 0.216616 -0.568229 128 38 30
2.37864 0.877052 -3.33489 161 55 31
-2.25699 0.781003 -1.33776 188 56 31
-3.06645 -0.237439 -0.388572 130 54 38
-4.34572 -1.93051 1.76762 170 71 48
3.95645 -1.22013 -2.30579 141 25 12
-2.3787 -2.84789 1.43883 130 23 17
4.78603 0.548714 -0.498013 154 74 39
2.79001 0.122793 -3.31708 139 61 39
-2.63461 0.756535 -1.74347 159 36 21
5.08866 -0.857694 -0.148631 173 72 44
-2.7772 -1.96673 0.591405 136 24 13
-3.12219 -2.07408 1.84934 124 21 16
-3.4118 -1.83801 1.86963 133 24 17
-3.05175 0.318429 -0.808329 144 25 17
-3.55352 -1.80387 -0.0965887 146 25 14
2.18096 1.62908 -3.60269 150 39 20
4.40473 0.990568 -1.54841 137 81 58
-1.20899 -4.4596 2.85638 174 78 56
2.13579 0.848063 -3.23308 133 75 29
1.0794 1.66234 -2.74874 153 66 36
-2.92286 2.53773 1.1271 117 36 19
2.19037 0.825056 -3.73231 145 57 35
1.11181 1.93569 0.416625 132 27 21
-3.22813 -2.12015 -0.16348 165 59 43
2.61486 0.880117 -3.58548 141 55 32
-0.332978 -1.19272 2.54844 163 60 43
0.684019 1.54731 -1.97495 131 30 22
-2.82509 -0.505112 -2.02353 142 34 24
4.65412 0.753559 -1.48386 122 21 13
-1.52689 -2.0984 2.87405 163 53 30
-1.83778 -0.91189 0.0636714 136 35 25
2.10921 -3.51035 4.1422 97 13 11
0.551565 1.82577 -3.06062 152 36 21
3.34418 1.54033 -1.63638 150 48 26
4.77559 1.49887 0.578023 153 64 34
-2.69019 1.76173 2.14519 160 63 31
-1.91911 2.73414 -0.228016 140 45 17
-3.1602 -2.65598 3.07358 142 45 29
4.41918 1.66795 0.0434003 156 62 36
2.11565 0.85415 -5.67238 148 45 26
3.64975 2.83743 -1.10855 150 70 33
-2.58021 0.660212 -0.953062 148 55 38
-2.95235 -2.92672 1.48019 126 24 19
-4.82621 0.562202 0.462823 141 30 23
1.07275 -6.07548 4.25122 200 78 37
-3.69212 -1.09032 1.34086 138 31 23
-3.50381 -0.474918 0.287948 153 32 24
-0.913685 -0.392174 -2.88275 149 66 26
-0.612612 1.50849 -3.04841 158 41 21
2.83664 1.06756 -3.27359 162 46 21
1.42357 0.904635 -3.70459 160 64 42
2.81347 -3.00683 4.03323 139 56 52
-2.86209 1.7185 0.736506 138 43 23
1.66899 0.776475 -3.82988 152 51 33
-3.23947 0.859 1.52405 176 77 46
-3.27547 0.838599 1.46486 154 55 34
-2.74202 1.85836 0.149789 137 40 23
1.71875 1.5393 -1.86045 144 59 38
1.54435 1.57207 -1.70284 148 45 30
-0.774543 0.688721 -4.06825 156 69 41
-0.284872 2.93774 -1.59321 144 71 38
-2.69216 -3.31268 1.9469 176 72 43
-2.2729 -3.3119 2.38354 181 78 47
0.0726878 0.487488 -0.918671 132 79 39
5.32036 -0.313202 0.281222 132 60 45
-0.700569 0.837452 -3.2764 131 29 24
-2.9481 2.4999 0.568052 133 36 19
-2.91848 -1.93164 1.11972 164 55 32
4.57063 0.214456 -1.61195 139 36 21
0.234548 1.42375 -3.0498 142 43 24
-2.11261 -2.50992 2.31614 166 56 29
0.019293 -3.27195 4.09149 136 41 37
0.0669499 -3.26343 4.16505 136 41 37
-2.79413 2.65054 1.28685 150 50 27
-2.31304 -2.13032 1.64883 175 71 46
2.31293 1.214 -2.98212 155 63 40
-0.0131013 3.10238 -1.38128 139 58 29
-0.463991 1.42476 -3.94917 152 53 30
1.21353 6.46732 1.47666 147 68 35
0.532063 2.76578 -0.197211 134 38 22
1.07343 6.50299 1.41924 147 67 34
-1.1705 0.192175 -0.924048 159 52 36
-1.19736 0.0979757 -0.84412 163 56 38
0.0559996 0.9081 -0.949563 158 47 36
-1.0787 2.77643 -1.1919 138 45 27
-1.45441 -0.0680673 -0.775675 150 48 34
-0.352373 2.6038 -2.23996 137 49 25
-2.26952 -1.09386 1.09221 161 46 25
-3.34632 0.499316 1.03116 160 52 24
-3.29964 0.286758 1.49576 163 55 27
-3.09706 1.29355 0.365708 146 41 20
-2.81873 1.87651 1.98634 142 42 19
-3.31588 2.03049 1.99453 156 48 20
-3.39955 1.74777 1.93127 159 51 23
-1.94856 5.93373 1.82243 133 38 18
0.331023 1.03375 -3.60464 195 73 50
-1.87496 0.227934 -2.93254 194 68 45
-1.95316 0.229958 -3.12261 181 56 38
1.37476 1.15445 -3.75062 194 76 50
-0.0192973 0.971418 -3.71659 187 60 43
3.97574 -2.49272 3.42304 164 74 63
1.66968 1.15268 -4.2164 179 76 45
-1.01126 -3.19356 3.65925 174 38 42
3.01618 1.87051 -1.66166 180 84 46
0.962426 1.12595 -3.80761 185 60 38
-1.68286 0.084368 -3.10226 199 80 60
-1.50751 -3.07799 3.38436 127 17 16
1.55484 1.3854 -2.43002 189 58 38
1.8897 1.44013 -4.01181 187 87 53
-3.32376 -1.28861 -0.709297 197 99 60
-0.330603 -3.49416 4.1559 171 31 30
-3.31033 -1.76576 -0.632284 214 118 94
1.75205 1.15624 -3.76183 177 67 42
1.81108 1.40495 -3.36343 184 69 40
3.80658 -2.7502 3.45809 178 39 32
-3.22392 -0.486596 -0.743339 206 103 62
-1.83404 -2.90525 3.30474 114 21 14
4.17453 -2.64047 3.2604 163 31 27
3.0785 1.41744 -1.97528 183 83 49
-1.21208 -4.53095 2.77741 181 93 71
-0.561458 6.75358 1.94567 119 71 51
-2.99634 -2.15474 0.47718 178 73 51
-2.54874 -1.87038 1.04473 181 77 52
1.93062 0.844264 -3.6928 139 48 27
0.161245 3.1558 -1.1108 148 58 32
0.800673 1.25376 -3.39644 151 56 34
-0.543151 0.4765 -0.394398 150 50 35
-1.94277 -0.349909 -1.12183 165 58 40
1.90173 1.93646 -2.44646 159 69 35
-2.93739 -3.43482 1.41556 193 94 71
-2.66072 -0.355437 -2.06572 141 33 23
6.04209 -0.731028 2.17848 128 26 21
1.07498 1.8269 0.457782 148 31 21
-1.97431 0.212538 -3.01503 147 33 23
-2.06906 -1.23855 3.13162 175 70 40
-0.971551 3.06742 -1.15268 147 66 39
-0.598466 -3.13538 4.37113 115 22 17
-3.21053 2.6606 4.23104 177 81 43
-2.2464 2.5056 0.139002 143 43 20
-2.78717 3.50867 1.42462 147 45 22
-2.78017 2.62171 2.89062 160 52 23
-3.0992 4.06917 2.14521 148 39 19
-3.04021 2.40604 1.0033 139 39 16
-3.43859 1.88848 1.59718 156 57 26
-2.88088 3.0129 2.13977 146 41 19
-2.70881 2.90847 1.50995 150 45 23
-2.97377 2.81158 1.06391 150 45 23
-3.28639 0.805666 1.22955 150 57 26
-2.83238 2.53386 0.796709 148 43 21
-0.755132 3.21407 -0.0994495 137 40 23
-2.27651 1.88215 0.910278 141 38 19
-3.2227 1.77008 0.472795 139 40 19
-3.39679 1.53811 0.742423 144 44 20
0.0929651 6.90786 2.37254 132 40 19
-3.14592 -3.02585 0.739217 190 95 73
0.470937 4.83245 -0.093718 149 63 36
-2.62338 -3.87537 0.233784 190 100 74
4.42863 1.05361 -1.16698 160 67 34
1.07318 3.2984 -1.69348 143 70 35
4.42502 1.62746 -0.525084 157 71 38
-2.16688 0.308109 -2.48521 166 56 29
1.02907 1.38354 -2.86665 137 36 18
-3.16193 1.45171 0.403485 173 81 42
1.96717 1.48693 -1.35879 163 54 33
2.89716 1.16368 -3.40973 149 54 26
-2.48489 -0.0867394 -3.159 163 48 29
1.47321 3.20982 -1.24529 140 53 26
-2.74885 0.0753044 -1.1654 175 77 40
-2.12842 -2.90929 2.9247 141 28 24
-2.43444 -3.26541 0.922493 110 19 18
-2.70157 -2.72624 1.85608 120 23 16
0.942593 1.21497 -3.84458 138 32 18
-2.74303 3.62449 0.380406 157 56 26
-3.17509 -2.81527 0.663682 187 91 67
-0.978563 6.51158 1.68123 131 70 52
2.91572 1.93913 -2.06824 167 84 52
1.86381 1.08256 -3.13453 155 64 35
-3.13954 2.7589 1.93738 155 50 28
-2.07157 2.51831 -0.275857 145 44 26
-1.65737 0.319542 -4.95116 141 35 22
-3.05095 1.76746 -0.937329 144 41 22
-2.69925 3.09271 1.2554 153 48 27
-2.63861 3.99041 2.17502 148 41 21
0.159469 1.25234 -2.32609 140 34 21
-3.09835 1.96839 0.0846563 146 43 24
-3.78379 1.91148 1.15268 146 44 22
3.36054 4.30738 -0.599451 134 73 28
5.23716 -0.834568 0.767679 132 22 23
-0.335333 1.11826 -3.84758 150 45 26
5.06601 -0.45851 0.095428 128 26 21
-2.98349 1.2691 1.49654 157 49 23
-3.19262 1.79524 1.95477 155 50 21
-2.85752 1.43649 0.300081 147 42 21
-4.06906 0.50995 0.261975 160 57 26
-0.714546 6.28751 1.01304 128 40 18
-1.15894 3.13739 -0.971554 128 58 33
-2.00009 4.03772 0.458222 116 49 40
-0.694731 3.56616 0.606596 114 33 12
3.96446 -2.49455 3.37301 136 69 53
1.13403 6.88277 1.76751 134 75 43
4.06421 -1.37544 -2.66598 149 66 32
-2.42504 -3.82705 2.10127 194 100 74
1.33647 6.12913 1.70823 131 44 17
1.14194 3.31395 -1.63555 146 73 40
0.73721 1.2065 -3.45465 140 37 22
3.75817 0.805671 -2.63723 174 78 53
3.25711 0.896389 -2.908 170 76 50
0.620891 4.47742 -1.17172 141 67 32
2.49346 0.954722 -3.06224 135 38 21
-2.8926 4.44535 2.40696 152 51 21
1.79124 3.11324 -4.52132 127 72 16
-3.51514 -1.5146 -0.981556 180 108 68
-0.890054 0.783593 -3.35214 132 28 17
2.08639 2.90021 -1.51694 133 50 20
-2.76357 3.80376 -0.127328 156 52 23
-1.99893 -2.80696 3.60642 112 19 12
-1.89161 0.358246 -2.87849 141 31 18
-2.82221 0.112581 -1.24075 162 44 30
-0.806703 1.20798 -2.73832 170 76 51
2.32589 1.56028 -3.13446 142 24 14
-0.724332 1.0759 -2.87339 169 63 39
-3.09625 -1.31753 -1.65764 145 67 47
2.30286 1.70796 -2.92745 137 19 17
-3.22675 -2.38895 -0.438458 174 82 57
-2.45106 0.373437 -1.73157 151 29 14
-0.671452 1.50471 -2.88727 214 126 90
0.0288142 1.37501 -2.9443 187 85 63
-2.96548 0.651135 -1.06813 166 68 57
2.25752 0.86699 -3.42044 164 91 38
-3.42409 -0.71956 0.659484 139 51 37
-3.3047 -1.38537 1.90618 112 55 36
-1.61832 0.608341 -2.81053 154 32 21
-3.45845 -1.27102 0.57423 158 30 19
2.73711 1.17757 -2.75348 121 16 12
-1.45608 0.942029 -2.80022 155 35 19
-3.38083 -0.181816 -0.544532 131 16 9
-2.51868 -2.72553 2.27592 111 16 10
-4.4668 1.53874 -1.61754 145 28 19
-1.74007 1.61194 -3.47555 175 50 28
-2.19867 0.389393 -1.78757 214 97 90
-2.50347 -2.44971 2.92749 141 83 69
-0.204231 1.52274 -2.66132 170 96 71
-3.29048 -1.01493 1.15842 136 81 60
2.577 -2.47988 2.99716 182 67 46
-2.73773 -1.0731 -2.0872 159 82 64
-2.41503 -0.359907 -0.565474 122 48 37
0.126622 -3.03763 3.60961 185 70 41
-0.744993 -1.47805 3.5845 186 72 45
-1.32778 -0.0307275 3.50382 186 66 41
4.02265 0.0776126 -2.84356 168 69 48
4.71994 0.00781617 -1.98372 164 68 43
4.47722 0.187416 -2.3635 174 74 50
-2.92903 -2.38557 2.80186 117 26 21
-3.60122 -1.36117 1.15322 171 38 31
2.52058 -3.25041 3.77916 173 52 23
4.20997 -2.8533 2.36419 174 55 33
4.22449 -2.09135 2.62776 156 39 19
-2.59521 -3.86336 1.12858 171 81 57
0.496743 0.999816 -2.80143 148 34 23
4.30914 1.86765 0.772646 131 54 26
1.34105 0.846324 -3.35341 152 32 16
-2.88563 0.116364 -1.07027 133 18 13
2.81198 -0.401651 2.01337 166 49 29
0.340568 -4.49319 3.75507 191 87 48
4.79877 -2.5393 2.05562 149 38 19
3.75884 -0.65609 1.47705 162 47 26
1.31504 -3.26137 4.26004 98 43 38
2.54022 -0.219459 -3.52013 158 61 42
1.9042 0.94737 -3.12873 130 68 31
3.58529 0.49943 -3.19406 158 59 38
4.55257 0.0384992 -2.50067 156 61 43
-1.27178 1.05641 -2.22327 120 30 19
0.550629 -4.16729 3.39846 102 18 16
1.55166 0.830171 -3.77395 149 46 31
-0.350259 -1.07183 2.25886 150 47 32
1.47084 -4.36681 3.29933 103 22 19
-0.781457 3.32758 -0.730963 142 85 55
-3.21324 -0.727211 -2.26392 116 26 18
1.99726 0.774493 -3.38449 105 48 18
-2.8227 3.35089 1.2668 128 35 20
0.235077 0.59905 -0.858256 104 60 31
-0.53227 -0.724695 1.64924 145 43 29
-1.03046 1.69902 -2.23202 127 61 29
-2.65067 -1.948 1.35353 159 44 25
-1.36939 0.233073 -0.877804 137 30 24
-2.17629 -0.999776 0.265571 138 32 19
-3.19826 2.13992 1.99158 160 59 29
-3.75798 -3.55888 -0.828563 187 94 63
-2.87142 -2.00094 0.750534 188 88 64
5.03406 -1.25672 2.04254 131 67 57
-2.91671 -1.81972 1.56597 185 88 55
3.08733 1.42251 -1.69594 162 63 32
1.07767 2.68348 -2.74476 138 64 27
0.870528 1.38048 -2.53751 141 39 24
-2.68365 2.68944 0.830362 133 36 19
-1.99501 -1.97011 3.34373 185 83 58
-2.14248 2.49973 -0.267529 131 38 21
1.84646 1.65709 -1.86333 152 42 25
-2.61817 2.30662 -0.378201 136 41 23
0.265186 6.50339 1.41744 138 43 21
-2.05735 5.14196 0.377232 138 39 16
5.45028 -1.01372 1.33987 135 28 20
-0.861127 1.6654 -1.36287 137 34 19
-0.525121 1.18986 -2.90891 145 33 21
-2.00038 1.22487 -3.37732 136 34 19
-2.50705 4.044 2.0981 139 36 19
-0.796114 -2.94521 5.43639 106 15 10
