ply
format ascii 1.0
comment VCGLIB generated
element vertex 1000
property float x
property float y
property float z
property float nx
property float ny
property float nz
property uchar red
property uchar green
property uchar blue
property uchar alpha
element face 0
property list uchar int vertex_indices
end_header
-0.28886 2.43222 -2.4466 0 0 0 139 144 50 255 
1.56465 -0.85447 -6.58984 0 0 0 128 145 39 255 
2.18364 -1.44609 -6.79766 0 0 0 119 125 37 255 
0.710932 -0.640239 -7.08141 0 0 0 131 127 28 255 
2.80244 3.18215 -4.75463 0 0 0 142 141 49 255 
-7.37946 -4.26239 -4.98334 0 0 0 125 135 46 255 
-14.4683 -0.414102 -9.65374 0 0 0 153 149 58 255 
4.46203 6.52869 4.45788 0 0 0 156 155 72 255 
0.644887 -0.223989 -7.20161 0 0 0 170 168 59 255 
-14.2322 -0.635291 -9.70132 0 0 0 151 150 60 255 
4.4532 6.45379 4.33283 0 0 0 169 172 85 255 
0.337199 -0.0153885 -7.68477 0 0 0 163 159 51 255 
1.38021 2.17965 -5.56639 0 0 0 119 125 65 255 
1.72668 2.69105 -5.29774 0 0 0 107 108 51 255 
2.13261 2.81558 -5.18346 0 0 0 130 133 66 255 
-8.83511 -4.44569 -3.63248 0 0 0 142 146 49 255 
1.24884 2.70178 -5.59984 0 0 0 100 101 43 255 
-8.65474 -4.22805 -4.23824 0 0 0 133 142 53 255 
7.27913 7.43521 -1.84931 0 0 0 162 156 62 255 
-7.80964 -5.87045 -0.291085 0 0 0 132 127 45 255 
-0.539805 -0.341038 -7.74277 0 0 0 172 166 54 255 
-7.42818 -4.591 -5.09893 0 0 0 93 101 42 255 
1.60478 2.41625 -5.36452 0 0 0 87 90 37 255 
2.37425 -2.3662 -5.62572 0 0 0 136 135 45 255 
-2.62615 -0.0156403 11.9494 0 0 0 51 52 20 255 
2.98391 -1.60709 -5.69143 0 0 0 128 133 43 255 
-7.58313 -4.15118 -4.87577 0 0 0 109 122 40 255 
-8.67882 -4.36186 -4.06667 0 0 0 131 133 36 255 
-0.821028 0.958936 -3.78552 0 0 0 97 101 27 255 
0.336671 0.203506 -7.32374 0 0 0 146 142 34 255 
-0.974376 1.18701 -2.88695 0 0 0 112 115 24 255 
-0.217092 -3.13784 -1.33582 0 0 0 110 111 41 255 
-5.64994 -6.01999 -1.02658 0 0 0 227 221 127 255 
0.697381 -1.7967 -2.12199 0 0 0 229 221 136 255 
-2.63732 -4.48047 -0.582439 0 0 0 141 136 55 255 
4.27848 4.28933 -0.0433185 0 0 0 119 117 56 255 
4.08854 5.79071 1.95854 0 0 0 108 106 45 255 
3.33448 3.20107 0.296804 0 0 0 144 141 74 255 
3.75093 5.61729 -0.742764 0 0 0 70 68 30 255 
0.253768 -1.9049 10.3212 0 0 0 120 116 52 255 
4.87512 5.33474 -3.27611 0 0 0 60 58 20 255 
-11.0474 -3.14079 -4.86413 0 0 0 174 179 76 255 
-8.55968 -5.06556 -3.18889 0 0 0 196 198 101 255 
3.07238 0.536937 -5.67772 0 0 0 186 179 89 255 
-6.74484 -4.34837 -4.53975 0 0 0 203 202 112 255 
-7.13513 -4.7452 -4.77241 0 0 0 196 210 112 255 
2.12238 -2.64019 -3.284 0 0 0 204 196 98 255 
3.40687 -0.198984 -5.0046 0 0 0 80 79 33 255 
-4.7886 -5.21102 -2.20506 0 0 0 177 188 86 255 
-7.08498 -4.72787 -5.25811 0 0 0 126 145 55 255 
-6.38562 -4.57079 -4.91317 0 0 0 208 215 111 255 
2.72421 -2.61185 -4.99442 0 0 0 174 169 67 255 
3.72417 2.04477 -0.0384537 0 0 0 149 147 72 255 
-2.84345 -3.01833 0.0182146 0 0 0 119 122 43 255 
-2.84487 -2.87162 1.36667 0 0 0 114 113 30 255 
-7.70171 -4.90662 -3.23473 0 0 0 210 207 114 255 
3.77165 2.20898 -0.420449 0 0 0 128 125 58 255 
3.50866 -1.02784 -6.09049 0 0 0 170 174 77 255 
-7.21946 -4.75335 -3.70639 0 0 0 218 213 113 255 
3.47589 -0.436342 -5.09355 0 0 0 186 183 86 255 
-7.95673 -5.05464 -3.20486 0 0 0 201 200 108 255 
1.18145 -3.15238 -5.64935 0 0 0 200 199 107 255 
0.760775 -3.70541 -5.45587 0 0 0 195 189 95 255 
-3.96272 -5.20831 -2.24816 0 0 0 193 188 96 255 
0.101258 4.13454 9.5759 0 0 0 130 133 44 255 
3.96251 -1.6507 -3.09853 0 0 0 115 122 52 255 
4.4513 2.54876 0.873656 0 0 0 135 135 47 255 
4.07632 2.25491 0.381562 0 0 0 167 163 66 255 
1.4782 -2.32893 -3.91517 0 0 0 87 93 33 255 
2.45236 -1.92298 -6.29451 0 0 0 212 209 138 255 
4.58697 2.42433 0.939128 0 0 0 116 119 32 255 
1.08977 1.7182 -10.1346 0 0 0 181 176 82 255 
1.26662 0.0312427 -6.90387 0 0 0 138 143 40 255 
2.24646 -0.486323 -6.31777 0 0 0 101 120 38 255 
1.3083 -0.0349589 -6.46496 0 0 0 152 160 57 255 
2.66836 0.0214266 -6.24468 0 0 0 132 134 59 255 
2.42946 -1.34055 -7.1644 0 0 0 124 127 38 255 
-0.851665 1.00434 -3.29546 0 0 0 139 144 52 255 
1.04329 -0.169987 -7.15929 0 0 0 120 121 53 255 
2.26358 -1.27498 -6.93429 0 0 0 118 121 40 255 
3.3295 0.209336 -5.1586 0 0 0 104 102 45 255 
1.67565 -0.302045 -6.4309 0 0 0 144 154 57 255 
3.03493 -1.93718 -5.65151 0 0 0 124 128 43 255 
-0.868426 3.05381 -2.62709 0 0 0 125 127 43 255 
2.16622 -1.38445 -6.70957 0 0 0 131 137 51 255 
3.60214 0.485862 -5.10706 0 0 0 104 103 39 255 
-8.1862 -4.30142 -4.50719 0 0 0 137 143 45 255 
-0.652553 3.02992 -2.77551 0 0 0 96 103 36 255 
-14.5538 -0.826396 -9.08471 0 0 0 85 82 39 255 
-0.323792 -0.141056 -7.98727 0 0 0 163 160 45 255 
-8.59488 -4.0073 -5.36514 0 0 0 98 99 29 255 
-0.176565 -0.188692 -7.96453 0 0 0 156 153 36 255 
0.111977 -0.126629 -7.96628 0 0 0 153 150 37 255 
4.58494 5.19564 -0.171592 0 0 0 166 162 62 255 
0.465387 -3.99201 -5.02446 0 0 0 227 220 150 255 
0.758472 -3.92377 -5.29661 0 0 0 231 228 161 255 
-6.05314 -5.78314 -1.05516 0 0 0 218 210 127 255 
4.28044 -0.877365 -3.8865 0 0 0 231 224 169 255 
2.844 -2.4448 -3.52779 0 0 0 255 246 184 255 
5.41572 3.04747 -3.06189 0 0 0 255 248 167 255 
-0.667223 -2.00376 12.4021 0 0 0 184 179 88 255 
3.72285 -0.95986 -4.48734 0 0 0 255 251 183 255 
4.86254 3.72054 -0.433828 0 0 0 153 149 76 255 
3.00514 2.74823 2.71839 0 0 0 213 206 128 255 
1.55095 -3.51206 -5.39763 0 0 0 242 234 171 255 
3.11235 -2.13846 -3.77589 0 0 0 231 222 143 255 
-2.52057 -2.79977 -0.0156535 0 0 0 103 101 53 255 
6.04959 3.38613 -2.98887 0 0 0 167 162 58 255 
2.3057 -3.29545 -4.93726 0 0 0 233 229 155 255 
5.76901 4.81433 -2.0582 0 0 0 115 114 49 255 
3.53652 -1.30168 -4.99394 0 0 0 48 54 20 255 
2.99355 -1.14267 -5.19666 0 0 0 65 73 26 255 
-2.62766 4.38617 11.0747 0 0 0 71 70 26 255 
1.73627 -2.14337 -2.87805 0 0 0 148 149 55 255 
2.13459 -2.63842 -2.6704 0 0 0 162 163 61 255 
3.2452 -2.25094 -5.13169 0 0 0 159 155 64 255 
2.8371 -1.69946 -4.22472 0 0 0 179 172 102 255 
3.43963 -1.40337 -4.38861 0 0 0 188 183 101 255 
1.56948 -2.95442 -5.28288 0 0 0 154 161 83 255 
0.303078 4.17296 9.88524 0 0 0 108 109 43 255 
1.75808 -2.58787 -5.85972 0 0 0 172 176 91 255 
2.06059 -2.58697 -6.24762 0 0 0 174 175 95 255 
2.1389 -2.71175 -5.62208 0 0 0 162 166 90 255 
5.17265 4.45789 2.00275 0 0 0 193 199 127 255 
5.23769 4.7274 2.03049 0 0 0 209 202 130 255 
1.4042 -2.41615 -6.43101 0 0 0 173 181 95 255 
-0.0351096 3.02362 10.5174 0 0 0 152 157 91 255 
-0.0524751 3.13518 10.5744 0 0 0 152 158 96 255 
2.54223 -2.52318 -5.4998 0 0 0 155 170 87 255 
1.11107 -2.7815 -6.27138 0 0 0 187 185 108 255 
-0.0580696 -3.66744 -5.19406 0 0 0 154 157 68 255 
-0.0212985 -3.70478 -5.19307 0 0 0 174 177 88 255 
1.88313 -2.5805 -6.12318 0 0 0 184 186 103 255 
-8.18427 -4.66662 -1.80813 0 0 0 175 171 84 255 
5.40202 4.77218 2.29096 0 0 0 149 150 70 255 
0.318119 -3.64893 -5.08097 0 0 0 157 155 72 255 
0.303635 -1.21389 12.2165 0 0 0 107 104 51 255 
0.187196 3.95579 10.5298 0 0 0 75 85 25 255 
3.65654 -1.09688 -3.75574 0 0 0 229 223 129 255 
4.58282 3.88232 0.0903026 0 0 0 144 149 59 255 
-8.19006 -4.07731 -3.03064 0 0 0 110 109 44 255 
1.35436 -2.76354 -5.99983 0 0 0 154 159 77 255 
3.54782 -0.934542 -4.79851 0 0 0 122 120 63 255 
0.874683 -3.2165 -5.62059 0 0 0 207 211 124 255 
0.912269 -3.7761 -5.18213 0 0 0 156 150 74 255 
4.00649 -0.602208 -3.7195 0 0 0 176 175 82 255 
0.825252 -3.08882 -3.86932 0 0 0 107 103 40 255 
3.02883 -1.70346 -5.92834 0 0 0 140 152 54 255 
4.71116 4.21361 -0.198435 0 0 0 146 148 75 255 
3.36219 -1.49746 -5.9873 0 0 0 122 134 48 255 
5.06638 3.99035 -1.43659 0 0 0 148 145 94 255 
-1.37317 -3.7629 -4.30344 0 0 0 153 148 46 255 
3.49517 -1.30519 -5.33672 0 0 0 105 117 51 255 
0.534804 -3.23598 -3.67306 0 0 0 91 88 37 255 
1.61736 -2.04837 -6.57289 0 0 0 155 162 69 255 
0.159559 -1.67505 12.5673 0 0 0 119 115 51 255 
1.04514 -3.27877 -5.87221 0 0 0 165 164 81 255 
3.61925 -0.86205 -3.99646 0 0 0 187 184 103 255 
0.114723 -3.44776 -5.6644 0 0 0 169 170 100 255 
-6.65184 -5.72449 -1.39372 0 0 0 164 167 64 255 
-0.206604 4.29889 10.8232 0 0 0 93 102 49 255 
3.73802 -0.77177 -4.21258 0 0 0 129 128 61 255 
0.772149 -1.03243 11.8647 0 0 0 98 96 48 255 
-4.94813 -4.48872 -1.72652 0 0 0 138 136 61 255 
4.13035 1.40049 0.570738 0 0 0 148 152 68 255 
0.241169 -1.36098 12.6557 0 0 0 118 116 57 255 
-0.91892 3.8226 11.7369 0 0 0 123 120 67 255 
1.91732 -2.55521 -6.11467 0 0 0 194 196 113 255 
2.93777 -2.14038 -5.83599 0 0 0 145 155 66 255 
-6.5453 -5.4162 -1.70794 0 0 0 136 144 45 255 
-8.44377 -4.69873 -2.5078 0 0 0 145 142 65 255 
1.99996 -2.42454 -6.09115 0 0 0 199 205 119 255 
3.45806 -1.53918 -3.83203 0 0 0 162 156 70 255 
0.551181 -0.349276 -7.46584 0 0 0 173 173 63 255 
0.0608727 3.53578 11.305 0 0 0 117 127 56 255 
-8.35949 -5.00843 -2.1039 0 0 0 154 158 64 255 
-7.15961 -5.49742 -1.36947 0 0 0 162 164 63 255 
3.8087 -1.06943 -3.41053 0 0 0 181 176 76 255 
0.926971 -3.17599 -4.26144 0 0 0 126 127 57 255 
-0.527624 -3.40049 -5.51974 0 0 0 174 171 78 255 
-0.464385 -0.331139 -7.60611 0 0 0 190 191 74 255 
3.87489 -1.76458 -3.14175 0 0 0 208 214 116 255 
-0.0931051 4.00581 9.93371 0 0 0 79 81 44 255 
4.33708 1.93388 0.717517 0 0 0 125 132 62 255 
1.46098 -2.3385 -6.61769 0 0 0 205 204 121 255 
3.09085 -2.25702 -5.45305 0 0 0 190 194 97 255 
-7.52275 -4.26957 -4.4581 0 0 0 138 148 59 255 
3.44398 -1.04013 -6.02309 0 0 0 115 127 53 255 
4.13487 2.06637 0.58233 0 0 0 111 117 43 255 
-0.0135765 -3.55256 -5.45048 0 0 0 165 163 76 255 
0.0361492 4.02907 9.85923 0 0 0 91 95 44 255 
2.65275 -1.97966 -6.29035 0 0 0 138 155 63 255 
1.87257 -1.99649 -6.76414 0 0 0 149 161 63 255 
-8.83937 -4.78825 -2.56299 0 0 0 121 125 40 255 
-0.1861 -3.88236 -4.8625 0 0 0 158 153 69 255 
1.39401 -3.16356 -5.8862 0 0 0 160 165 75 255 
-0.157045 -3.2005 -5.76983 0 0 0 196 198 114 255 
0.347415 3.22414 11.7669 0 0 0 150 152 51 255 
-2.37881 -4.52964 -0.935598 0 0 0 170 166 69 255 
5.24895 4.39596 -1.58525 0 0 0 73 72 41 255 
1.95783 -2.88514 -4.79981 0 0 0 120 121 51 255 
-0.40427 -2.95268 -6.0447 0 0 0 161 159 59 255 
-0.473425 -2.73264 11.4091 0 0 0 109 105 44 255 
4.24755 1.37831 0.641053 0 0 0 132 139 61 255 
4.00243 1.94208 0.402231 0 0 0 125 129 53 255 
3.68972 -1.36967 -3.23002 0 0 0 174 185 91 255 
-1.18005 -3.91626 -4.50838 0 0 0 164 158 62 255 
-8.29598 -4.84643 -1.87391 0 0 0 151 150 57 255 
4.50055 1.03683 0.567306 0 0 0 131 131 61 255 
3.87575 -1.25459 -3.2406 0 0 0 121 121 51 255 
0.505128 -3.42229 -5.9318 0 0 0 163 161 76 255 
1.2565 -3.18256 -5.59905 0 0 0 137 143 55 255 
-0.0717727 4.17553 10.3355 0 0 0 95 100 44 255 
5.02623 4.86471 0.335853 0 0 0 128 127 47 255 
0.875384 -3.33004 -5.21067 0 0 0 140 141 63 255 
0.446085 4.00749 10.0595 0 0 0 98 103 39 255 
2.5917 -1.62949 -6.56623 0 0 0 138 152 55 255 
2.31507 -2.44072 -5.66946 0 0 0 168 172 78 255 
0.123414 -3.53208 -5.43382 0 0 0 202 205 114 255 
0.702791 -3.43879 -6.19701 0 0 0 172 170 85 255 
-8.19979 -4.82542 -2.08899 0 0 0 149 147 60 255 
-0.279564 -3.57726 -4.60868 0 0 0 135 130 49 255 
2.41798 -2.67006 -5.25766 0 0 0 132 137 53 255 
0.523987 3.60679 10.6792 0 0 0 97 106 43 255 
4.31105 2.75103 0.581664 0 0 0 119 120 60 255 
-0.131235 -3.81804 -5.21441 0 0 0 167 166 76 255 
-0.32305 -1.83193 12.3208 0 0 0 117 114 45 255 
2.30628 -2.87632 -5.13804 0 0 0 121 126 59 255 
3.63011 -1.00015 -4.34129 0 0 0 114 110 47 255 
2.95774 -1.96663 -5.82011 0 0 0 149 156 63 255 
4.52145 2.33939 0.92263 0 0 0 110 109 53 255 
0.206031 4.09042 9.63992 0 0 0 84 84 32 255 
-8.36431 -4.69357 -3.31355 0 0 0 150 155 55 255 
-4.46453 -4.77033 -1.72528 0 0 0 111 114 45 255 
0.191572 -3.49665 -6.2058 0 0 0 127 139 55 255 
3.72675 2.13696 -0.432985 0 0 0 55 54 36 255 
-8.11816 -4.14526 -3.8902 0 0 0 136 146 47 255 
1.10281 -3.49429 -5.42882 0 0 0 130 135 55 255 
5.15577 4.85151 0.628823 0 0 0 125 122 43 255 
-7.91659 -4.41669 -3.84813 0 0 0 138 142 47 255 
2.50259 -2.00829 -6.3911 0 0 0 150 160 71 255 
0.496175 -3.27531 -5.76144 0 0 0 158 159 66 255 
0.630378 0.118389 -7.47272 0 0 0 151 149 49 255 
0.271579 0.0534879 -7.55727 0 0 0 178 179 60 255 
0.84249 3.5397 9.91799 0 0 0 100 100 40 255 
1.54347 -2.91099 -4.25142 0 0 0 84 86 37 255 
0.411315 0.0185906 -7.76369 0 0 0 173 169 59 255 
2.60788 -1.8541 -6.60889 0 0 0 136 148 50 255 
5.82153 5.17207 -1.6524 0 0 0 34 33 15 255 
1.11386 -2.94129 -5.36646 0 0 0 116 121 39 255 
1.54543 -2.02859 -6.82047 0 0 0 159 165 65 255 
-7.17874 -5.45242 -1.57302 0 0 0 138 144 36 255 
-8.52889 -4.48968 -2.35783 0 0 0 117 116 26 255 
2.34235 -2.04876 -6.56764 0 0 0 130 141 45 255 
1.1935 -2.71233 -6.73467 0 0 0 161 163 66 255 
2.14876 -2.54635 -6.10689 0 0 0 133 141 55 255 
3.30822 1.44486 -4.56478 0 0 0 68 66 18 255 
-2.97399 -2.24618 10.246 0 0 0 146 141 77 255 
-0.249357 -0.773733 10.1966 0 0 0 69 77 28 255 
-3.74457 -2.61999 10.0805 0 0 0 82 79 46 255 
-3.47478 -2.17583 10.2914 0 0 0 88 87 43 255 
-2.83169 -2.10161 10.4816 0 0 0 83 84 52 255 
0.293909 -1.19689 11.1211 0 0 0 53 52 24 255 
-2.45426 -1.86919 11.4797 0 0 0 34 36 12 255 
1.56441 -0.00665807 -6.67223 0 0 0 155 164 49 255 
2.6575 0.316383 -5.29533 0 0 0 157 156 64 255 
-7.07425 -3.72868 -0.826353 0 0 0 143 140 45 255 
1.10016 -1.53307 -4.98192 0 0 0 186 190 67 255 
2.38047 -0.389655 -5.07934 0 0 0 148 149 55 255 
3.30138 1.43095 -4.0573 0 0 0 172 169 74 255 
2.22661 1.75685 -5.36712 0 0 0 132 129 52 255 
2.77559 0.483915 -5.61072 0 0 0 170 164 76 255 
1.67332 1.3283 -5.84045 0 0 0 141 136 80 255 
-1.74262 0.368974 12.064 0 0 0 131 134 45 255 
3.59201 0.419187 -4.75137 0 0 0 178 176 89 255 
2.93807 0.109599 -5.59887 0 0 0 132 136 52 255 
6.51427 4.98217 -1.64842 0 0 0 163 159 59 255 
3.21187 0.386313 -5.23002 0 0 0 147 143 56 255 
-0.8634 1.16451 12.2569 0 0 0 150 148 45 255 
5.49209 5.59941 1.8142 0 0 0 134 134 48 255 
-1.21803 0.209064 12.1229 0 0 0 139 140 74 255 
-1.83321 0.948588 12.3484 0 0 0 162 164 80 255 
-1.63416 0.428548 12.0743 0 0 0 126 123 56 255 
-1.40421 0.925001 12.4472 0 0 0 154 151 70 255 
-1.62583 0.946008 12.4116 0 0 0 155 156 63 255 
-1.35649 0.613003 12.3147 0 0 0 110 113 46 255 
-1.17578 1.39541 12.3199 0 0 0 142 143 49 255 
-0.175452 1.4509 11.7363 0 0 0 150 148 45 255 
-0.40581 0.454248 11.4675 0 0 0 72 74 27 255 
-0.288233 -0.488983 -7.38206 0 0 0 189 195 99 255 
1.58506 0.708988 -8.57561 0 0 0 201 196 130 255 
-7.56486 -5.5849 -1.48218 0 0 0 51 53 16 255 
-7.2933 -5.68003 -1.81539 0 0 0 180 184 99 255 
-1.50261 0.684115 -4.18682 0 0 0 157 165 80 255 
-7.76783 -5.97249 -0.950551 0 0 0 165 169 93 255 
1.03363 1.8888 -10.8927 0 0 0 203 206 149 255 
0.799316 1.6603 -10.2117 0 0 0 218 215 160 255 
-6.65039 -5.74623 -1.80705 0 0 0 181 191 105 255 
6.44327 5.80033 -1.95581 0 0 0 204 203 146 255 
0.292112 -0.42246 -5.53611 0 0 0 199 200 122 255 
-1.70577 0.957091 -4.17117 0 0 0 191 191 131 255 
1.0831 0.767401 -8.41851 0 0 0 222 217 162 255 
-6.1169 -5.76082 -1.76421 0 0 0 173 186 94 255 
-9.61272 -4.27917 -10.5054 0 0 0 173 179 93 255 
-1.79095 0.226714 -4.09623 0 0 0 205 208 155 255 
0.715495 1.88805 -10.3785 0 0 0 179 179 125 255 
-9.41728 -4.20345 -11.1058 0 0 0 173 177 100 255 
-9.41845 -4.52639 -10.6535 0 0 0 184 185 115 255 
-9.24653 -4.98941 -10.8235 0 0 0 100 116 43 255 
0.530927 0.136296 -8.31591 0 0 0 124 124 60 255 
0.712163 1.0525 -9.54582 0 0 0 169 166 123 255 
-8.10483 -4.54612 -4.53082 0 0 0 172 184 98 255 
1.05823 0.0858362 -9.88179 0 0 0 198 193 163 255 
-1.34479 -0.936074 -7.66522 0 0 0 227 230 153 255 
-13.726 -1.69873 -9.03224 0 0 0 187 184 115 255 
4.11256 4.3909 -1.28143 0 0 0 155 153 92 255 
-1.80733 0.514659 -4.06994 0 0 0 190 196 132 255 
5.36299 5.53519 -1.94113 0 0 0 194 194 144 255 
-0.0208658 7.61755 -1.07229 0 0 0 216 213 136 255 
0.0363246 -3.43111 -7.17613 0 0 0 122 131 76 255 
-0.262603 0.710805 -8.65307 0 0 0 188 185 118 255 
0.580211 1.18648 -9.27985 0 0 0 111 108 63 255 
-10.3539 -3.6229 -9.95885 0 0 0 159 155 84 255 
4.34331 6.02716 -0.521439 0 0 0 185 186 108 255 
5.22231 6.31823 -1.55237 0 0 0 179 180 112 255 
-7.93829 -4.72777 -4.65074 0 0 0 146 166 77 255 
5.35069 5.25789 -1.62032 0 0 0 85 86 42 255 
0.221532 0.573045 -8.2779 0 0 0 208 206 132 255 
6.0891 6.49838 -1.82467 0 0 0 200 199 134 255 
1.58556 0.587729 -9.40613 0 0 0 104 109 45 255 
4.27786 5.92498 -1.48237 0 0 0 166 167 89 255 
-0.945963 -0.0535913 -3.8921 0 0 0 46 45 24 255 
2.83165 -1.70993 -6.10248 0 0 0 121 143 42 255 
-13.0559 -2.59234 -9.04761 0 0 0 194 187 119 255 
-0.066122 2.2628 -2.66458 0 0 0 112 118 56 255 
3.97674 6.43786 -0.790463 0 0 0 175 178 91 255 
4.23859 6.26608 -0.859097 0 0 0 174 176 92 255 
4.1531 0.180174 -4.1857 0 0 0 255 251 222 255 
0.911489 1.17778 -9.07796 0 0 0 138 134 27 255 
-9.06888 -5.8687 -10.244 0 0 0 255 245 183 255 
1.06677 1.88768 -10.9534 0 0 0 97 103 43 255 
-1.08812 -0.0219821 -8.26978 0 0 0 214 207 54 255 
1.53756 1.70103 -10.4245 0 0 0 194 195 119 255 
5.41936 6.12777 2.12073 0 0 0 95 93 45 255 
1.34853 2.02453 -10.5635 0 0 0 126 135 42 255 
2.73419 -0.7657 -5.97221 0 0 0 98 95 24 255 
0.956121 1.10038 -9.02281 0 0 0 177 175 62 255 
-7.67151 -3.99794 -3.86582 0 0 0 210 210 54 255 
-2.43593 -3.89289 -2.73062 0 0 0 195 188 81 255 
-7.83119 -4.07642 -4.47074 0 0 0 199 202 37 255 
5.45611 6.55627 2.20811 0 0 0 146 141 57 255 
3.89708 -1.46531 -3.36125 0 0 0 214 206 141 255 
-11.2945 -2.73581 -10.2363 0 0 0 180 173 103 255 
2.74586 1.08881 -5.73354 0 0 0 255 246 181 255 
0.732328 0.32105 -8.13109 0 0 0 80 77 44 255 
1.21578 0.938149 -6.39975 0 0 0 123 124 31 255 
-7.88718 -4.23275 -4.74502 0 0 0 204 210 48 255 
1.14066 1.30634 -9.13604 0 0 0 175 177 80 255 
-9.0616 -4.50772 -4.16352 0 0 0 207 211 65 255 
-8.202 -4.54334 -4.55738 0 0 0 198 201 34 255 
-8.63095 -4.38261 -4.5619 0 0 0 207 211 39 255 
-14.1898 -2.44057 -8.4783 0 0 0 187 182 52 255 
-15.3822 -2.55767 -8.50466 0 0 0 172 169 40 255 
-8.20535 -4.2554 -4.78862 0 0 0 197 202 48 255 
-8.24588 -4.30585 -4.40171 0 0 0 200 201 45 255 
-7.70912 -4.69114 -4.72275 0 0 0 181 187 35 255 
-8.67331 -3.76646 -4.28516 0 0 0 90 93 48 255 
7.30762 7.58591 -2.15719 0 0 0 157 165 27 255 
2.80329 -0.828186 -1.33687 0 0 0 175 171 10 255 
0.817744 0.699324 -8.37267 0 0 0 134 131 16 255 
1.2916 1.92255 -10.7933 0 0 0 86 88 25 255 
3.8998 4.35273 0.78288 0 0 0 153 156 41 255 
4.09665 7.1072 -0.957146 0 0 0 255 255 214 255 
-1.74323 -0.04107 12.501 0 0 0 163 178 87 255 
0.324926 3.27949 11.1905 0 0 0 156 173 81 255 
-1.10852 2.51095 -2.39954 0 0 0 172 181 56 255 
4.77287 6.17913 4.30631 0 0 0 183 194 125 255 
-3.02665 -0.548155 12.2126 0 0 0 138 154 65 255 
4.76528 4.81023 1.40248 0 0 0 172 177 61 255 
-4.95862 -2.84929 11.5475 0 0 0 118 137 32 255 
-2.14392 1.15478 12.5325 0 0 0 125 131 61 255 
-3.48304 -2.82859 0.0486565 0 0 0 135 157 72 255 
4.93183 4.739 1.33938 0 0 0 181 183 82 255 
4.82501 4.77865 0.781866 0 0 0 196 201 98 255 
2.87251 1.87091 0.184911 0 0 0 143 152 45 255 
-3.30835 -0.478193 12.7576 0 0 0 96 96 36 255 
4.68653 4.99745 0.622486 0 0 0 172 183 79 255 
5.33571 5.87995 2.26705 0 0 0 118 132 71 255 
-4.5066 -1.69762 11.4047 0 0 0 192 187 119 255 
0.044293 2.56543 -2.1706 0 0 0 129 134 52 255 
-1.16545 5.51413 12.7487 0 0 0 187 190 85 255 
2.07528 1.08984 12.3593 0 0 0 203 207 130 255 
4.88148 5.84968 2.29357 0 0 0 95 109 50 255 
5.16131 5.94023 2.2174 0 0 0 95 109 50 255 
4.69805 4.91544 0.399774 0 0 0 156 165 56 255 
-0.282024 3.2099 10.1808 0 0 0 120 137 69 255 
3.72836 1.40892 1.33391 0 0 0 132 135 44 255 
4.80953 5.67969 0.46804 0 0 0 131 132 52 255 
-4.7867 -2.89462 10.9103 0 0 0 177 181 105 255 
4.70708 4.92164 0.0628599 0 0 0 174 179 59 255 
3.87635 1.07599 0.991229 0 0 0 169 178 63 255 
-0.189024 4.06609 10.7466 0 0 0 119 121 56 255 
-2.18306 2.32594 12.3631 0 0 0 170 173 68 255 
3.51357 0.962128 11.6932 0 0 0 81 78 35 255 
-1.28989 5.03931 12.7233 0 0 0 139 149 50 255 
-3.14803 -3.14345 0.235382 0 0 0 106 123 45 255 
-2.11845 1.36257 12.7959 0 0 0 134 145 53 255 
1.26789 -0.0809299 10.9297 0 0 0 105 119 44 255 
5.3614 4.87788 1.5778 0 0 0 123 119 48 255 
-3.35588 -0.325444 12.9762 0 0 0 90 87 36 255 
1.40569 -0.0734895 10.8158 0 0 0 93 107 32 255 
4.90541 4.68612 2.94368 0 0 0 93 93 41 255 
4.76351 6.38546 3.15515 0 0 0 73 80 29 255 
4.46687 5.11518 0.18242 0 0 0 122 119 40 255 
4.76878 5.87549 3.79395 0 0 0 68 73 32 255 
5.15964 5.93836 2.42684 0 0 0 78 88 36 255 
-0.902275 3.11759 9.83554 0 0 0 84 81 38 255 
-2.92126 -0.950246 13.4616 0 0 0 99 97 36 255 
3.7808 5.48543 3.39843 0 0 0 60 67 25 255 
4.83405 5.97801 3.52875 0 0 0 64 70 26 255 
4.75941 5.01104 2.30602 0 0 0 52 59 25 255 
4.68686 5.76381 3.32416 0 0 0 54 62 21 255 
-1.79682 1.90792 12.2835 0 0 0 192 190 81 255 
-0.956124 5.37948 12.5579 0 0 0 145 161 52 255 
-0.0714134 2.26412 -2.54329 0 0 0 177 193 60 255 
2.1246 -0.834643 -6.93885 0 0 0 193 223 67 255 
4.70669 4.74676 -1.99233 0 0 0 221 214 159 255 
2.31683 2.32476 -4.20488 0 0 0 126 141 40 255 
-1.04363 1.52559 12.7787 0 0 0 160 174 60 255 
2.63285 1.22883 12.2351 0 0 0 186 196 125 255 
3.95016 1.01078 0.959461 0 0 0 161 168 52 255 
-4.61492 -2.28889 3.08785 0 0 0 221 217 170 255 
-0.744326 3.0712 9.9767 0 0 0 151 163 81 255 
4.73203 5.68092 0.805738 0 0 0 161 164 75 255 
0.60919 -0.518302 10.671 0 0 0 93 104 36 255 
4.87933 5.68287 0.497966 0 0 0 149 153 58 255 
-3.36498 -0.245063 12.2194 0 0 0 168 182 95 255 
-1.62292 3.0787 11.8661 0 0 0 170 178 69 255 
-4.13703 -2.69739 0.715084 0 0 0 152 155 98 255 
5.13377 4.96641 1.47069 0 0 0 166 171 69 255 
-3.23098 0.607592 12.7028 0 0 0 103 99 51 255 
-2.78408 1.04612 12.6472 0 0 0 117 126 43 255 
3.11696 1.6907 0.133407 0 0 0 140 145 45 255 
3.13124 3.19995 3.62321 0 0 0 139 134 70 255 
5.0903 5.25798 1.55771 0 0 0 114 121 43 255 
0.740769 -0.822383 10.7721 0 0 0 102 113 44 255 
0.101952 -0.00644433 10.6094 0 0 0 106 115 34 255 
-0.584919 3.26141 9.83083 0 0 0 84 82 31 255 
-3.33579 0.409476 12.5653 0 0 0 119 118 54 255 
-2.41362 2.29247 12.2006 0 0 0 166 170 60 255 
-0.564106 1.16312 12.6889 0 0 0 110 118 41 255 
-1.90921 2.06214 12.0118 0 0 0 188 190 80 255 
-1.23381 -1.54988 10.251 0 0 0 111 136 42 255 
-3.4108 0.646602 12.5236 0 0 0 82 80 31 255 
4.56995 5.91031 1.66086 0 0 0 78 82 32 255 
-3.83267 -1.02151 12.5345 0 0 0 85 85 33 255 
4.47591 6.76416 3.59652 0 0 0 70 78 31 255 
5.234 5.91758 1.85593 0 0 0 72 83 27 255 
-1.75076 1.77996 12.2948 0 0 0 197 194 89 255 
-2.64904 2.00817 12.3125 0 0 0 166 170 60 255 
3.42268 1.01685 11.7727 0 0 0 83 81 33 255 
-4.61115 1.04049 -1.69015 0 0 0 145 166 47 255 
-4.72669 1.21764 -2.77511 0 0 0 164 172 53 255 
-6.48928 0.889781 -1.36078 0 0 0 230 232 169 255 
4.69902 5.35935 0.24688 0 0 0 144 148 54 255 
2.67969 1.85288 -4.56401 0 0 0 77 75 37 255 
-2.40678 2.47296 12.5384 0 0 0 149 146 53 255 
4.5427 6.85048 3.74542 0 0 0 119 128 63 255 
5.00112 6.78851 3.30812 0 0 0 76 85 32 255 
2.41888 2.31726 -4.68076 0 0 0 155 154 62 255 
3.11239 2.9845 -5.21324 0 0 0 150 146 57 255 
-0.500662 -1.87134 14.9969 0 0 0 154 155 75 255 
-0.640159 -1.76503 15.0144 0 0 0 178 176 99 255 
2.01594 2.44262 -5.54099 0 0 0 156 151 59 255 
0.403863 3.13409 -4.39888 0 0 0 177 182 66 255 
2.04993 0.04574 -7.89813 0 0 0 186 190 70 255 
-6.59299 -3.24845 -1.98581 0 0 0 143 140 45 255 
3.50886 -0.212802 -5.20244 0 0 0 159 153 69 255 
2.68919 -0.226282 -5.10698 0 0 0 224 222 135 255 
1.8481 2.56658 -5.33888 0 0 0 203 199 125 255 
-12.7673 -2.64312 -8.98421 0 0 0 150 145 51 255 
1.20708 -0.166588 -6.37664 0 0 0 174 181 67 255 
2.01567 -0.208927 -6.55239 0 0 0 137 149 51 255 
2.5179 1.36216 -6.76866 0 0 0 134 133 50 255 
-8.62642 -4.96692 -2.16009 0 0 0 148 150 53 255 
-5.58294 -5.36817 -1.74337 0 0 0 145 150 50 255 
-2.4609 -4.52816 -0.587311 0 0 0 154 155 62 255 
-8.08322 -5.04617 -1.83072 0 0 0 153 151 66 255 
0.795599 -3.3796 -6.14636 0 0 0 165 164 84 255 
0.0496336 4.49305 10.1987 0 0 0 92 99 32 255 
0.889007 -3.19063 -5.63098 0 0 0 161 161 75 255 
0.587586 -3.13862 -5.0096 0 0 0 132 130 56 255 
2.69152 -2.6022 -5.87339 0 0 0 169 173 89 255 
1.94845 -3.16296 -5.22677 0 0 0 144 151 58 255 
4.66186 4.2837 0.324867 0 0 0 198 196 93 255 
-4.34746 -4.83577 -2.0824 0 0 0 129 128 46 255 
-8.37321 -4.35857 -4.11416 0 0 0 146 154 55 255 
2.28365 -2.83052 -5.15758 0 0 0 121 132 53 255 
2.28002 -2.70626 -5.22524 0 0 0 135 144 53 255 
1.95087 -2.99467 -4.81227 0 0 0 96 96 42 255 
1.21208 -2.98981 -5.43941 0 0 0 107 120 38 255 
-6.93636 -5.65905 -1.32869 0 0 0 140 142 43 255 
1.57289 -2.42546 -3.03231 0 0 0 150 154 57 255 
2.60529 -2.51294 -5.59224 0 0 0 170 173 94 255 
1.50837 -3.09246 -6.7009 0 0 0 150 154 60 255 
-7.76915 -3.46164 -4.16504 0 0 0 128 134 48 255 
3.22306 -2.23478 -5.12936 0 0 0 132 129 52 255 
2.01487 -2.49902 -5.38907 0 0 0 167 170 89 255 
-8.04909 -4.81933 -1.01686 0 0 0 127 132 40 255 
-4.85544 -4.6602 -1.99383 0 0 0 129 129 41 255 
-7.15951 -4.97689 -2.01095 0 0 0 139 142 55 255 
2.05001 -2.69269 -2.6455 0 0 0 158 158 62 255 
-6.72314 -5.71004 -1.38869 0 0 0 157 160 57 255 
0.176797 -3.63033 -3.74808 0 0 0 125 122 43 255 
4.6526 5.78551 0.226532 0 0 0 116 116 46 255 
0.790133 -2.88 -5.59187 0 0 0 166 168 85 255 
1.99981 -2.41135 -4.57213 0 0 0 85 85 33 255 
-8.25013 -4.55555 -3.16769 0 0 0 147 151 57 255 
0.74923 -3.31346 -5.2418 0 0 0 142 143 65 255 
0.957357 -2.74415 -6.51857 0 0 0 180 183 96 255 
-7.09946 -4.71229 -5.02897 0 0 0 124 137 58 255 
-0.502726 -3.41502 -5.53656 0 0 0 174 171 78 255 
-8.40335 -4.93643 -2.97942 0 0 0 109 117 40 255 
0.799599 -0.444489 -7.47423 0 0 0 161 161 63 255 
0.71648 -2.69497 -4.05222 0 0 0 114 115 47 255 
0.285752 -3.70327 -4.93018 0 0 0 134 133 53 255 
1.82528 -3.05191 -4.96279 0 0 0 124 128 52 255 
-6.99585 -5.68569 -1.31997 0 0 0 155 159 64 255 
1.47952 -2.50627 -5.50559 0 0 0 154 157 78 255 
-8.57495 -4.55212 -3.65158 0 0 0 156 163 67 255 
-7.27912 -5.32559 -2.30259 0 0 0 138 135 58 255 
2.21948 -2.80796 -4.67109 0 0 0 81 82 40 255 
0.607454 -3.22859 -6.60442 0 0 0 152 151 58 255 
2.50183 -2.34813 -6.66013 0 0 0 152 166 71 255 
1.42777 -3.12921 -4.61564 0 0 0 114 111 42 255 
0.362715 -4.1575 -6.41135 0 0 0 156 158 61 255 
1.89788 -2.72967 -5.79392 0 0 0 158 164 78 255 
-7.48357 -5.04197 -1.25011 0 0 0 160 163 60 255 
-0.568009 -3.42076 -5.40428 0 0 0 172 166 80 255 
1.58265 -2.92027 -5.47991 0 0 0 149 151 67 255 
1.21234 -3.39554 -4.19583 0 0 0 94 95 38 255 
3.45966 -1.89044 -5.7082 0 0 0 124 138 51 255 
1.59142 -2.97903 -5.07466 0 0 0 142 144 61 255 
2.0681 -2.98469 -5.71357 0 0 0 146 148 65 255 
-0.801173 -2.92825 -5.88884 0 0 0 170 171 69 255 
2.25375 -2.48583 -4.67921 0 0 0 85 84 38 255 
-0.0746125 -3.89991 -4.70922 0 0 0 119 119 45 255 
0.60944 -0.135629 -7.848 0 0 0 170 172 65 255 
7.31082 7.47108 -2.0335 0 0 0 168 165 72 255 
-7.13754 -5.00198 -5.09858 0 0 0 106 120 43 255 
0.994188 -3.11925 -4.52173 0 0 0 120 121 45 255 
1.50708 -2.43675 -3.99586 0 0 0 53 54 23 255 
-6.17513 -5.41283 -2.01166 0 0 0 95 95 41 255 
-4.93446 -4.66715 -1.86434 0 0 0 106 113 36 255 
-7.72851 -5.66266 -3.37131 0 0 0 115 124 43 255 
-7.02932 -4.86572 -4.63872 0 0 0 120 129 40 255 
0.0768762 4.23808 9.59576 0 0 0 73 79 33 255 
-14.8352 -1.83793 -7.45434 0 0 0 118 118 44 255 
1.1005 -3.02204 -4.12958 0 0 0 97 98 40 255 
3.15553 2.03422 0.706352 0 0 0 55 54 26 255 
-0.0929308 -0.800937 -7.71451 0 0 0 181 184 67 255 
6.83004 5.58984 -1.58821 0 0 0 160 159 67 255 
3.99841 2.70259 0.801904 0 0 0 107 110 41 255 
-2.44597 -4.38479 -3.98388 0 0 0 168 162 64 255 
-0.839817 -0.438147 -7.75338 0 0 0 169 179 57 255 
1.66889 -2.2953 -3.1808 0 0 0 132 138 40 255 
2.20477 -2.26406 -3.44698 0 0 0 159 153 55 255 
0.6115 -0.010845 -7.70354 0 0 0 150 151 49 255 
2.29664 -2.66889 -5.04897 0 0 0 101 108 40 255 
-0.491432 -0.708011 -7.69659 0 0 0 175 177 54 255 
1.75852 -3.24138 -4.94773 0 0 0 103 106 35 255 
3.37191 -1.4104 -5.53825 0 0 0 105 119 34 255 
2.35313 -2.52389 -4.65173 0 0 0 61 59 21 255 
2.73515 0.53835 -5.55396 0 0 0 88 91 34 255 
4.27002 0.268439 -3.99837 0 0 0 99 102 33 255 
-0.500956 -1.29099 10.2298 0 0 0 106 106 52 255 
-8.47482 -5.02198 -3.43314 0 0 0 131 132 56 255 
1.81558 -1.58763 -7.03016 0 0 0 150 149 59 255 
2.71637 -2.18776 -5.37708 0 0 0 200 202 127 255 
0.37882 -0.0351968 -7.37125 0 0 0 165 159 61 255 
0.73251 -0.14337 -7.16595 0 0 0 160 155 71 255 
6.2228 5.62915 -1.59541 0 0 0 112 113 53 255 
3.74167 -1.21204 -3.26827 0 0 0 116 114 53 255 
2.04913 -2.20395 -6.47818 0 0 0 145 146 66 255 
-1.28292 0.119517 12.2018 0 0 0 71 75 38 255 
2.93386 -1.67262 -5.86258 0 0 0 138 145 67 255 
1.87086 -1.73476 -6.35026 0 0 0 149 152 75 255 
-2.04831 0.514945 12.2736 0 0 0 90 94 43 255 
2.10871 0.883946 -5.84573 0 0 0 74 80 36 255 
-8.26814 -4.95172 -2.86944 0 0 0 141 137 66 255 
1.78588 -2.7055 -6.01341 0 0 0 134 135 55 255 
2.86941 -1.4213 -6.29355 0 0 0 135 139 62 255 
1.14858 -3.06221 -6.21954 0 0 0 147 145 62 255 
0.975598 -3.32702 -5.78425 0 0 0 154 149 68 255 
2.04792 -2.57374 -5.56108 0 0 0 158 153 69 255 
2.01884 2.33828 -5.28611 0 0 0 95 99 38 255 
-7.89238 -4.78979 -3.43533 0 0 0 140 137 56 255 
2.30404 -1.67297 -6.86616 0 0 0 168 169 89 255 
3.87153 -0.208586 -4.55318 0 0 0 99 97 38 255 
6.46372 5.37367 -0.929905 0 0 0 128 130 55 255 
2.38734 -1.20971 -7.07485 0 0 0 98 101 46 255 
1.83408 0.0470262 -6.54607 0 0 0 146 158 74 255 
2.40095 -2.34283 -5.78725 0 0 0 145 144 62 255 
2.29666 -2.30274 -6.06986 0 0 0 130 134 50 255 
1.63292 0.140669 -6.78896 0 0 0 158 167 74 255 
1.39802 0.418369 -6.97721 0 0 0 136 132 45 255 
2.76977 -1.83309 -5.84386 0 0 0 154 156 73 255 
2.8385 -2.02626 -5.71384 0 0 0 130 132 49 255 
1.93721 -2.7193 -5.61567 0 0 0 154 149 68 255 
3.05053 -2.14611 -5.50351 0 0 0 127 128 52 255 
-1.71844 0.90734 12.1671 0 0 0 115 120 62 255 
1.45402 2.23376 -5.53859 0 0 0 97 105 45 255 
1.96073 -2.35372 -6.43754 0 0 0 130 132 49 255 
2.65637 -2.27415 -5.72057 0 0 0 158 157 75 255 
3.73908 -1.57687 -3.17078 0 0 0 127 129 54 255 
0.587359 3.29788 10.9652 0 0 0 132 133 53 255 
2.95485 0.589789 -5.73117 0 0 0 126 122 51 255 
2.23754 -2.53291 -5.3624 0 0 0 133 137 53 255 
-1.48315 0.891373 12.1775 0 0 0 105 110 46 255 
1.38349 -2.74128 -6.03288 0 0 0 119 123 39 255 
2.32898 0.215824 -6.16337 0 0 0 80 89 36 255 
-2.29808 0.334571 12.054 0 0 0 82 82 32 255 
3.19342 -1.46677 -5.76905 0 0 0 123 134 55 255 
3.44058 0.332041 -5.17008 0 0 0 102 110 53 255 
2.459 0.514677 -5.83629 0 0 0 93 102 39 255 
1.81691 -2.8032 -5.29463 0 0 0 146 141 59 255 
3.70918 0.554625 -4.79749 0 0 0 109 118 53 255 
3.80434 1.2584 -4.88063 0 0 0 109 116 46 255 
1.17553 1.16497 13.2568 0 0 0 114 111 32 255 
-2.90225 -0.363814 12.1188 0 0 0 68 69 25 255 
1.62153 -2.82494 -5.78497 0 0 0 131 128 47 255 
1.26849 1.69646 -5.85912 0 0 0 57 59 22 255 
1.18071 -3.34287 -5.37108 0 0 0 174 174 84 255 
-8.001 -4.78493 -3.69283 0 0 0 141 141 55 255 
1.46032 -2.40716 -6.69735 0 0 0 152 150 63 255 
-1.19303 0.609748 12.4514 0 0 0 67 73 29 255 
1.01124 -2.5949 -6.89174 0 0 0 156 151 59 255 
4.18525 0.139573 -3.95891 0 0 0 106 110 36 255 
4.094 -0.0246395 -4.05755 0 0 0 94 94 40 255 
2.5091 1.25483 -5.4949 0 0 0 92 91 45 255 
3.7731 0.471734 -4.41066 0 0 0 84 87 34 255 
1.40035 1.72338 -5.65543 0 0 0 74 81 30 255 
-1.30886 0.914501 12.6353 0 0 0 102 106 30 255 
4.1858 1.6295 0.706999 0 0 0 89 89 35 255 
2.13119 0.520132 -6.18322 0 0 0 71 78 34 255 
2.44689 2.27498 -5.17533 0 0 0 81 87 39 255 
3.03542 -1.79418 -5.88771 0 0 0 135 138 57 255 
2.49482 -1.96514 -6.10019 0 0 0 133 138 58 255 
0.0848404 -1.34715 10.0043 0 0 0 87 84 33 255 
-0.0199398 2.87944 11.2837 0 0 0 126 122 31 255 
3.98481 1.80536 0.528568 0 0 0 104 103 39 255 
4.20565 0.158257 -3.87462 0 0 0 109 113 39 255 
1.31131 0.406746 13.3843 0 0 0 122 118 44 255 
3.45684 -1.06291 -5.47803 0 0 0 55 59 22 255 
2.09628 2.61206 -5.03006 0 0 0 80 88 39 255 
3.40692 0.638342 -5.1164 0 0 0 75 81 33 255 
2.60905 0.961695 -5.64135 0 0 0 84 87 34 255 
0.0289326 0.254547 -8.14033 0 0 0 172 167 63 255 
3.10217 2.06766 -5.56377 0 0 0 94 101 33 255 
1.90769 2.68046 -5.13641 0 0 0 84 90 28 255 
2.93344 0.439876 -5.46172 0 0 0 88 85 30 255 
2.94821 -0.924717 -6.42418 0 0 0 100 108 33 255 
6.12169 5.6249 -1.33028 0 0 0 96 99 28 255 
1.14496 1.82354 -10.5825 0 0 0 202 207 149 255 
-0.339571 0.821402 -10.5747 0 0 0 156 160 84 255 
1.47139 0.784289 -8.90591 0 0 0 201 196 140 255 
2.43547 0.646126 12.9094 0 0 0 194 196 112 255 
2.13672 1.27906 13.2335 0 0 0 180 181 103 255 
2.23297 1.16006 13.1981 0 0 0 201 202 126 255 
2.65087 0.608191 12.7562 0 0 0 173 176 95 255 
1.38294 0.795742 -8.73267 0 0 0 247 241 181 255 
2.7452 0.666781 12.6755 0 0 0 165 168 89 255 
2.93137 1.10225 12.599 0 0 0 164 166 91 255 
2.53071 0.985048 12.7819 0 0 0 151 152 76 255 
-7.46531 -5.00332 -10.7215 0 0 0 97 94 43 255 
2.38041 1.09058 12.9244 0 0 0 183 184 104 255 
2.90953 0.648767 12.5428 0 0 0 119 123 47 255 
2.12613 0.903098 13.191 0 0 0 173 175 92 255 
0.189222 0.993537 -8.32139 0 0 0 99 100 40 255 
1.11619 1.5692 -10.5229 0 0 0 75 83 34 255 
1.40326 0.559951 -8.73061 0 0 0 234 227 175 255 
2.58944 -1.28908 -6.7773 0 0 0 161 162 82 255 
4.035 1.05012 -4.42387 0 0 0 122 125 54 255 
2.85241 0.126817 -5.8006 0 0 0 99 102 35 255 
-2.23002 -1.84196 9.94038 0 0 0 131 128 59 255 
1.30761 0.370234 -6.78886 0 0 0 141 145 51 255 
1.18058 -2.52753 -2.90097 0 0 0 131 126 42 255 
6.1093 5.72356 -1.38546 0 0 0 112 113 53 255 
-7.35181 -4.22344 -4.77144 0 0 0 131 131 77 255 
-0.677016 0.988158 12.9103 0 0 0 119 115 44 255 
3.79116 -1.23602 -3.33713 0 0 0 116 114 53 255 
2.27265 0.706487 -5.77157 0 0 0 91 98 44 255 
1.93853 -2.23622 -6.34616 0 0 0 145 146 66 255 
2.07192 -1.80928 -6.63427 0 0 0 149 150 70 255 
-8.27022 -5.1188 -1.83537 0 0 0 126 123 56 255 
3.3479 0.268544 -5.27595 0 0 0 80 87 36 255 
1.75798 2.04424 -5.46949 0 0 0 112 118 56 255 
5.3108 5.70527 2.21601 0 0 0 88 87 39 255 
-6.8008 -4.25277 -4.88262 0 0 0 116 113 62 255 
2.39615 -2.02992 -6.20734 0 0 0 142 147 65 255 
1.4356 0.237483 -6.93686 0 0 0 174 184 85 255 
-1.88984 -2.23069 10.0652 0 0 0 82 93 35 255 
0.556355 -3.47281 -5.86025 0 0 0 160 154 78 255 
-7.03225 -4.70693 -5.37381 0 0 0 144 146 63 255 
2.8856 -1.91816 -5.27977 0 0 0 134 139 57 255 
-0.833434 0.733384 12.1795 0 0 0 95 105 42 255 
0.994412 -3.32847 -5.80229 0 0 0 130 127 50 255 
0.827332 -3.21823 -6.50379 0 0 0 129 127 44 255 
3.19118 -1.45539 -5.98498 0 0 0 116 125 46 255 
2.6295 0.395076 -5.83002 0 0 0 96 104 47 255 
-7.87956 -4.6624 -3.6375 0 0 0 141 139 62 255 
4.32582 1.99263 0.775866 0 0 0 116 116 64 255 
4.19969 2.7639 0.728012 0 0 0 86 85 37 255 
3.8805 -0.189554 -4.34145 0 0 0 102 102 40 255 
1.41946 -0.0806926 -6.86383 0 0 0 135 146 52 255 
6.72318 6.8817 -1.27178 0 0 0 155 149 63 255 
2.5386 2.08859 -5.05578 0 0 0 99 107 48 255 
0.588087 -3.33601 -6.15617 0 0 0 131 127 53 255 
0.747458 -3.38464 -6.39714 0 0 0 131 127 53 255 
-2.27565 -2.10193 10.3851 0 0 0 87 94 42 255 
4.03654 2.50937 1.44399 0 0 0 95 95 41 255 
3.00084 1.75913 -4.57775 0 0 0 106 111 45 255 
2.83403 -2.17911 -4.87213 0 0 0 130 125 44 255 
1.10518 -2.59857 -5.50318 0 0 0 123 127 42 255 
2.43531 0.366855 -6.42362 0 0 0 71 77 33 255 
3.8875 0.954477 -3.86492 0 0 0 72 70 32 255 
3.42907 -0.893508 -5.54965 0 0 0 56 63 22 255 
2.23138 -0.0701792 -6.13169 0 0 0 91 101 40 255 
1.39786 -2.94971 -5.83993 0 0 0 122 120 45 255 
0.747485 -3.27056 -6.02322 0 0 0 118 115 38 255 
1.97931 2.24943 -5.51865 0 0 0 90 91 34 255 
1.32562 0.57605 13.1834 0 0 0 132 127 46 255 
4.9646 5.48993 0.972273 0 0 0 93 91 32 255 
4.38912 1.53913 0.946822 0 0 0 87 87 35 255 
1.48552 2.65073 -5.2818 0 0 0 70 77 26 255 
1.47854 -2.53548 -6.28343 0 0 0 126 129 42 255 
4.40484 0.14902 -4.45705 0 0 0 93 95 32 255 
0.943481 0.31178 -6.49847 0 0 0 132 136 39 255 
3.38313 -0.22337 -4.43067 0 0 0 91 89 32 255 
3.63737 2.01819 0.984751 0 0 0 103 102 35 255 
3.53544 -0.0994634 -4.77731 0 0 0 81 86 30 255 
-0.361621 -0.0630739 12.0654 0 0 0 29 29 5 255 
4.26023 0.0650957 -3.92404 0 0 0 95 96 30 255 
4.01066 2.08046 0.312441 0 0 0 93 92 28 255 
-7.12825 -4.39918 -4.97011 0 0 0 103 107 31 255 
4.43772 5.14571 1.78789 0 0 0 209 202 114 255 
-0.503119 3.31595 10.6586 0 0 0 181 178 85 255 
-1.48976 1.92177 11.4045 0 0 0 148 144 37 255 
4.28035 6.92962 -0.773208 0 0 0 230 221 146 255 
-3.2252 -2.3406 10.2938 0 0 0 173 168 104 255 
-1.38564 -4.21488 -2.43733 0 0 0 135 132 37 255 
5.13305 4.44806 -1.43451 0 0 0 96 93 38 255 
-1.27026 1.7925 -3.5908 0 0 0 107 103 29 255 
-1.90036 0.931189 12.3602 0 0 0 180 182 99 255 
-2.18125 -1.85958 9.92938 0 0 0 169 175 89 255 
-2.87923 -0.28551 12.5168 0 0 0 149 153 69 255 
2.50572 0.726863 -5.74773 0 0 0 208 206 123 255 
-2.99746 -1.88847 10.6899 0 0 0 172 166 114 255 
-2.24331 0.567792 12.1255 0 0 0 141 136 52 255 
-2.07022 0.926977 12.3158 0 0 0 168 163 79 255 
4.59061 7.0614 3.93442 0 0 0 93 90 37 255 
4.63791 6.35178 4.36988 0 0 0 175 172 77 255 
-2.48667 -2.18831 10.392 0 0 0 99 102 45 255 
-2.42551 -1.9918 9.93383 0 0 0 124 129 71 255 
-1.88274 0.438154 12.0077 0 0 0 161 155 77 255 
4.766 5.51688 3.88115 0 0 0 163 158 67 255 
5.51065 4.18763 -0.954211 0 0 0 97 99 36 255 
-1.43771 0.85842 12.4909 0 0 0 171 173 72 255 
-1.27276 0.592847 12.4612 0 0 0 132 138 50 255 
-0.821463 -1.90936 10.2936 0 0 0 92 91 43 255 
-2.04183 0.271342 11.9721 0 0 0 109 105 42 255 
-1.86082 0.623959 12.0928 0 0 0 147 146 63 255 
0.56655 -1.62513 11.2151 0 0 0 79 76 31 255 
-0.14354 -2.24322 10.7063 0 0 0 107 105 28 255 
-1.51737 0.534511 12.2747 0 0 0 126 129 38 255 
-2.93111 -2.33237 10.4378 0 0 0 92 92 38 255 
0.851612 -1.47563 10.9345 0 0 0 85 83 26 255 
-7.29602 -4.4411 -4.90648 0 0 0 199 205 105 255 
0.903675 -0.994759 -6.48571 0 0 0 198 206 133 255 
-7.9597 -4.9092 -3.57259 0 0 0 201 199 99 255 
-7.29963 -5.50628 -1.22911 0 0 0 199 204 104 255 
4.62827 0.120351 -4.18818 0 0 0 158 160 61 255 
-6.8014 -4.10548 0.0729852 0 0 0 173 172 80 255 
4.93818 4.99306 -0.117388 0 0 0 144 149 55 255 
5.70384 4.47253 0.893301 0 0 0 180 174 80 255 
2.3782 -2.72168 -5.62663 0 0 0 241 234 164 255 
-0.332572 -3.12891 -1.54697 0 0 0 104 101 48 255 
4.42077 2.63041 0.508401 0 0 0 143 145 72 255 
-7.36017 -4.76074 -4.57722 0 0 0 129 142 60 255 
4.42099 3.44839 0.945698 0 0 0 126 128 44 255 
0.588916 -3.48059 -4.22881 0 0 0 167 162 80 255 
3.99848 -0.0200795 -4.60135 0 0 0 125 125 51 255 
-6.89502 -4.65047 -4.81039 0 0 0 168 178 82 255 
-8.4482 -4.76808 -3.32146 0 0 0 210 211 117 255 
1.16742 -0.288404 -6.84918 0 0 0 162 180 60 255 
3.61215 1.41107 0.145335 0 0 0 176 175 95 255 
4.39005 1.72075 0.844908 0 0 0 101 100 35 255 
3.83761 -0.841034 -5.1802 0 0 0 85 90 36 255 
4.12241 2.2581 0.426055 0 0 0 151 159 73 255 
4.33038 3.76709 0.95714 0 0 0 126 129 50 255 
-8.34394 -4.75564 -3.26591 0 0 0 185 184 91 255 
3.52612 1.30392 0.468447 0 0 0 67 69 19 255 
4.53565 1.89771 0.995729 0 0 0 95 97 34 255 
-7.65715 -4.66365 -3.6246 0 0 0 169 166 73 255 
3.25745 1.36441 -0.192819 0 0 0 39 39 15 255 
-2.21421 -4.01931 -0.280966 0 0 0 110 111 35 255 
3.98811 1.91746 0.598282 0 0 0 89 89 29 255 
4.17915 2.09916 0.741495 0 0 0 79 82 27 255 
-15.4569 -1.322 -7.86542 0 0 0 86 83 32 255 
1.33367 -3.0192 -6.73846 0 0 0 216 209 131 255 
3.69256 2.34369 0.420299 0 0 0 118 115 36 255 
4.45139 -2.18097 -3.52448 0 0 0 151 162 68 255 
5.40599 4.3762 -1.39906 0 0 0 187 181 87 255 
1.82842 -0.000976936 -8.84125 0 0 0 152 154 53 255 
4.47337 3.4376 -0.748342 0 0 0 190 192 69 255 
-7.11748 -3.88116 -5.22176 0 0 0 156 171 66 255 
4.20443 0.867325 -4.61929 0 0 0 202 206 112 255 
4.40414 3.20359 -0.0818578 0 0 0 207 200 83 255 
2.85874 1.08821 -10.3547 0 0 0 161 155 77 255 
-2.76972 -4.11923 -1.19741 0 0 0 180 174 88 255 
4.60357 4.21038 0.131319 0 0 0 166 179 73 255 
5.16111 4.95847 2.69066 0 0 0 163 173 77 255 
4.70663 1.36841 -4.99057 0 0 0 125 132 52 255 
2.19957 0.758742 -5.82289 0 0 0 144 155 59 255 
4.89055 0.897172 -4.99313 0 0 0 163 170 77 255 
3.58573 1.4785 0.138869 0 0 0 188 195 115 255 
0.987316 0.741153 -8.13007 0 0 0 124 129 29 255 
3.83531 -1.02557 -5.80199 0 0 0 119 127 44 255 
4.12142 -0.704957 -4.13529 0 0 0 206 199 109 255 
1.91376 -2.78273 -5.97496 0 0 0 201 201 127 255 
3.51984 -0.757181 -4.96917 0 0 0 133 140 62 255 
0.862358 -3.36506 -5.64825 0 0 0 208 205 126 255 
3.39267 0.815192 -5.1185 0 0 0 93 97 38 255 
6.55284 5.00254 -1.83322 0 0 0 161 169 66 255 
2.2077 -2.03561 -6.65479 0 0 0 226 229 176 255 
1.66197 -2.21006 -6.66603 0 0 0 214 214 162 255 
4.04865 1.46965 0.631661 0 0 0 171 165 91 255 
1.83765 0.0169168 -6.61723 0 0 0 178 196 88 255 
1.4905 -3.24395 -5.58871 0 0 0 193 187 91 255 
2.84667 -0.888741 -6.93957 0 0 0 174 196 85 255 
3.81895 -0.883711 -4.27399 0 0 0 155 153 66 255 
5.72178 4.99961 2.46755 0 0 0 132 136 41 255 
4.07779 2.47578 0.574618 0 0 0 153 152 60 255 
1.72416 -2.95328 -5.05939 0 0 0 176 183 87 255 
-7.7758 -4.80195 -3.48546 0 0 0 218 213 113 255 
3.57141 -1.28721 -3.91639 0 0 0 221 218 139 255 
7.59307 4.49108 -1.86553 0 0 0 152 155 66 255 
4.04155 1.89589 -4.82539 0 0 0 147 146 64 255 
4.29211 2.54418 0.766898 0 0 0 138 150 68 255 
3.83709 -0.676639 -3.10086 0 0 0 137 136 53 255 
4.49769 2.4796 0.748546 0 0 0 137 152 61 255 
3.5436 -2.2432 -5.46138 0 0 0 182 181 89 255 
4.27474 -0.143732 -4.19082 0 0 0 159 165 67 255 
4.25669 -0.153175 -4.67741 0 0 0 140 138 53 255 
2.00921 -2.11401 -6.53509 0 0 0 215 217 154 255 
4.03635 2.74164 0.352751 0 0 0 93 90 39 255 
4.62126 1.80685 1.14367 0 0 0 127 130 43 255 
3.14241 -1.19966 -6.18577 0 0 0 177 186 103 255 
0.21009 -0.267268 -7.77032 0 0 0 224 224 126 255 
3.75727 -0.958141 -6.2559 0 0 0 136 146 50 255 
4.30169 0.887302 -4.89904 0 0 0 167 181 86 255 
4.01374 -1.65137 -3.03573 0 0 0 110 106 43 255 
4.8098 0.477637 -5.21417 0 0 0 159 175 77 255 
4.10377 1.61982 0.647084 0 0 0 160 161 57 255 
4.79419 0.666214 -4.80042 0 0 0 133 136 69 255 
1.92531 0.157105 -8.51117 0 0 0 97 103 39 255 
7.60379 4.40475 -2.13102 0 0 0 158 171 65 255 
4.13841 -0.157302 -4.3967 0 0 0 133 143 54 255 
3.27339 -1.81676 -4.67233 0 0 0 58 60 23 255 
2.89258 0.367026 -9.78825 0 0 0 184 177 87 255 
-3.89603 -4.95586 -2.70955 0 0 0 183 176 86 255 
-7.99874 -5.03702 -3.57836 0 0 0 173 182 93 255 
-0.424339 1.82956 11.903 0 0 0 150 145 45 255 
-1.49331 1.27241 12.0234 0 0 0 170 168 67 255 
-3.04906 -0.828082 12.3763 0 0 0 97 96 40 255 
2.79673 1.43578 -5.25373 0 0 0 135 137 54 255 
3.2303 3.09416 -4.3993 0 0 0 130 126 53 255 
-0.834918 2.51696 -2.51042 0 0 0 124 128 44 255 
-0.679068 -2.45053 11.2915 0 0 0 65 66 22 255 
0.156611 -0.363641 -7.84778 0 0 0 216 215 109 255 
4.45788 -0.404793 -3.86713 0 0 0 186 184 97 255 
2.26949 -1.96455 -7.18072 0 0 0 208 211 122 255 
2.4569 -2.62415 -5.58637 0 0 0 212 209 128 255 
-7.2383 -4.65916 -4.92809 0 0 0 192 207 116 255 
3.76495 1.86778 -5.03546 0 0 0 192 188 89 255 
-4.74252 -1.12129 12.2285 0 0 0 191 187 113 255 
-7.08948 -4.74941 -5.24642 0 0 0 167 186 105 255 
-1.50207 0.247338 12.5008 0 0 0 147 161 66 255 
7.52631 4.94442 -2.12436 0 0 0 198 193 109 255 
-1.64494 -2.27109 10.1025 0 0 0 135 155 58 255 
-0.292206 4.4436 10.3295 0 0 0 139 145 57 255 
-0.625737 -2.06032 9.8762 0 0 0 213 209 135 255 
4.4358 6.08778 2.09485 0 0 0 137 133 44 255 
3.63037 -1.14992 -6.0732 0 0 0 169 176 81 255 
7.22024 5.08821 -1.56651 0 0 0 144 150 64 255 
4.14369 1.51796 0.78911 0 0 0 127 126 62 255 
-4.09011 -2.08948 10.9741 0 0 0 153 156 77 255 
3.8259 -0.875807 -3.56052 0 0 0 169 169 79 255 
2.07602 -2.83077 -5.31373 0 0 0 205 204 114 255 
3.25329 2.60501 -4.74658 0 0 0 192 198 124 255 
2.36024 -2.64967 -5.47985 0 0 0 210 211 143 255 
3.40337 -1.26519 -5.75136 0 0 0 146 163 69 255 
2.36588 -2.6235 -5.20567 0 0 0 188 201 113 255 
-1.45624 -3.2127 10.9663 0 0 0 121 117 54 255 
-0.455924 3.26505 11.7425 0 0 0 172 179 63 255 
-8.12103 -5.04285 -3.03728 0 0 0 186 187 107 255 
4.18841 3.79226 0.907105 0 0 0 133 131 44 255 
-6.6391 -3.9853 -5.14629 0 0 0 70 74 41 255 
4.08117 2.49124 0.0527989 0 0 0 106 102 41 255 
2.71509 1.94048 -5.25507 0 0 0 164 170 80 255 
1.83367 -2.79377 -4.55362 0 0 0 150 149 69 255 
-1.6103 0.600499 12.3698 0 0 0 82 90 31 255 
-0.510406 -0.786697 14.5686 0 0 0 89 88 34 255 
-2.41 -2.801 0.365639 0 0 0 54 54 26 255 
-0.618829 3.63756 10.6292 0 0 0 181 188 121 255 
-0.346152 -0.984413 13.6296 0 0 0 64 64 30 255 
-0.125519 -2.11777 10.8064 0 0 0 93 93 41 255 
-2.39318 -2.06669 11.2982 0 0 0 35 34 13 255 
-3.03547 -5.00451 -1.32199 0 0 0 153 148 54 255 
0.280747 3.41679 11.6747 0 0 0 143 150 38 255 
4.15642 4.08799 -0.595763 0 0 0 154 152 41 255 
0.139111 4.53753 10.0939 0 0 0 87 93 31 255 
0.314664 -1.67139 12.3679 0 0 0 102 100 43 255 
-0.272148 3.21538 9.87152 0 0 0 85 93 44 255 
-3.55299 -4.66366 -1.43651 0 0 0 169 165 74 255 
-7.82777 -5.23272 -1.26852 0 0 0 140 138 53 255 
0.136955 3.63433 11.159 0 0 0 83 91 32 255 
-0.231728 3.79559 11.5901 0 0 0 107 113 49 255 
3.83727 -0.768119 -3.05406 0 0 0 93 90 47 255 
5.72637 3.72798 -1.31801 0 0 0 122 123 47 255 
-0.475227 3.49718 11.804 0 0 0 132 132 34 255 
3.91703 2.4009 0.316587 0 0 0 122 124 51 255 
4.53656 2.56175 1.06313 0 0 0 117 118 40 255 
-0.102204 -1.39357 12.2314 0 0 0 92 90 33 255 
3.49725 3.36738 0.0182192 0 0 0 138 138 40 255 
-1.80984 0.960992 12.306 0 0 0 93 97 36 255 
-2.47393 -0.508818 11.6641 0 0 0 76 75 29 255 
-1.71506 1.16918 12.4425 0 0 0 135 132 51 255 
-1.61726 0.743632 12.3248 0 0 0 82 85 30 255 
-2.25579 0.30349 12.2601 0 0 0 65 73 24 255 
4.10759 0.516994 -4.02067 0 0 0 92 92 28 255 
-2.93683 0.0035832 12.099 0 0 0 148 146 72 255 
-1.96895 1.00641 12.2354 0 0 0 89 87 36 255 
1.4391 0.718776 13.3169 0 0 0 186 187 107 255 
-1.26538 0.620774 12.4146 0 0 0 75 74 26 255 
-2.22509 0.260963 11.9766 0 0 0 66 68 31 255 
-7.35499 -5.13569 -1.02088 0 0 0 140 142 43 255 
-9.22467 -4.51828 -1.82993 0 0 0 124 128 31 255 
-0.83604 -2.95111 -5.90605 0 0 0 172 174 67 255 
4.39857 1.69281 1.07158 0 0 0 114 115 49 255 
4.21209 -0.380705 -3.75478 0 0 0 156 150 64 255 
-7.79155 -5.52108 -0.712423 0 0 0 146 146 56 255 
5.27209 4.29573 -1.42883 0 0 0 147 153 65 255 
-7.70901 -4.52647 -1.65205 0 0 0 151 148 55 255 
3.34046 -1.38402 -3.2653 0 0 0 193 187 101 255 
-2.5469 -2.9676 1.41137 0 0 0 143 138 74 255 
-5.13202 -4.68923 -1.86819 0 0 0 181 183 86 255 
2.88223 -2.31475 -5.57578 0 0 0 175 187 103 255 
-0.0540832 -3.35235 -3.47468 0 0 0 172 167 85 255 
-6.44787 -5.12411 -2.20491 0 0 0 150 145 54 255 
1.61799 -3.0927 -4.55058 0 0 0 95 101 37 255 
1.71757 -1.82665 -3.32833 0 0 0 137 143 53 255 
-6.67082 -5.4357 -1.04368 0 0 0 140 139 49 255 
0.709526 -3.261 -6.12737 0 0 0 164 163 80 255 
-8.86799 -4.65887 -2.22103 0 0 0 152 156 62 255 
1.81839 -2.4771 -6.08924 0 0 0 184 186 103 255 
-0.848533 -3.33733 -5.4588 0 0 0 172 167 75 255 
1.9326 -2.66779 -5.25162 0 0 0 188 193 101 255 
0.507702 -3.66403 -5.50288 0 0 0 164 167 78 255 
-0.618914 -3.54432 -4.89661 0 0 0 184 178 94 255 
1.3296 -1.88978 -3.1275 0 0 0 136 148 62 255 
-8.03803 -4.20763 -3.13036 0 0 0 172 175 86 255 
2.72818 -1.5449 -6.118 0 0 0 165 180 87 255 
-6.71902 -3.70992 -3.11002 0 0 0 184 178 82 255 
1.80526 -1.57511 -3.35806 0 0 0 125 129 53 255 
2.7908 -1.73387 -5.85985 0 0 0 146 159 69 255 
4.20462 2.50257 0.20727 0 0 0 119 117 43 255 
3.44047 -0.987545 -5.48497 0 0 0 102 115 46 255 
4.57215 4.21592 0.0148259 0 0 0 144 149 59 255 
1.67334 -2.75807 -4.3042 0 0 0 104 104 54 255 
2.51314 -1.40257 -6.48022 0 0 0 154 166 68 255 
-7.74407 -4.29698 -3.9289 0 0 0 148 152 68 255 
-8.19194 -4.25907 -3.40959 0 0 0 168 170 71 255 
1.02989 -2.76388 -3.75983 0 0 0 98 95 40 255 
3.97401 -0.551506 -4.3356 0 0 0 144 147 56 255 
-8.7708 -4.54377 -2.65499 0 0 0 107 115 55 255 
-6.98908 -5.3627 -0.997989 0 0 0 165 165 69 255 
3.40022 -0.141229 -5.82079 0 0 0 133 130 49 255 
0.490118 -3.05554 -3.99483 0 0 0 130 128 54 255 
3.7572 0.165789 -4.42497 0 0 0 123 123 51 255 
2.5551 -1.80823 -5.78603 0 0 0 168 177 86 255 
2.11774 -2.58429 -3.20609 0 0 0 167 169 70 255 
2.21018 -2.26394 -5.26059 0 0 0 158 164 74 255 
-0.864546 -2.55769 -5.43917 0 0 0 171 169 68 255 
6.46716 4.65498 -1.48636 0 0 0 150 151 58 255 
4.21771 2.30979 0.364457 0 0 0 133 133 63 255 
-0.703614 -3.57084 -4.73762 0 0 0 166 162 73 255 
-0.517991 0.207998 -7.70632 0 0 0 179 188 63 255 
0.410584 3.13352 11.5603 0 0 0 147 149 42 255 
-0.886898 0.623127 -7.3705 0 0 0 173 178 60 255 
